754.65 754.897 755.113 755.37 755.615 755.84 756.092 756.313 756.557 756.806 757.028 757.272 757.51 757.745 758.003 758.222 758.478 758.724 758.944 759.206 759.427 759.688 759.93 760.156 760.409 760.625 760.887 761.112 761.358 761.609 761.836 762.096 762.344 762.567 762.816 763.079 763.305 763.551 763.782 764.034 764.296 764.517 764.765 765.018 765.24 765.512 765.734 765.998 766.225 766.475 766.741 766.963 767.218 767.448 767.712 767.949 768.193 768.444 768.7 768.923 769.197 769.443 769.678 769.939 770.159 770.428 770.679 770.91 771.161 771.409 771.66 771.92 772.146 772.402 772.656 772.896 773.14 773.418 773.644 773.904 774.167 774.408 774.661 774.894 775.153 775.42 775.656 775.91 776.171 776.398 776.675 776.932 777.168 777.426 777.658 777.929 778.189 778.42 778.697 778.927 779.184 779.438 779.698 779.96 780.19 780.469 780.722 780.964 781.237 781.462 781.736 781.999 782.232 782.495 782.743 783.001 783.268 783.508 783.774 784.046 784.285 784.564 784.797 785.063 785.325 785.578 785.835 786.08 786.346 786.614 786.849 787.127 787.394 787.638 787.912 788.152 788.417 788.687 788.928 789.193 789.452 789.707 789.987 790.225 790.503 790.77 791.01 791.294 791.533 791.817 792.08 792.326 792.601 792.836 793.12 793.365 793.631 793.905 794.151 794.434 794.703 794.946 795.217 795.502 795.748 796.016 796.266 796.54 796.824 797.065 797.335 797.61 797.85 798.146 798.387 798.675 798.922 799.193 799.482 799.724 800.002 800.251 800.539 800.796 801.061 801.334 801.613 801.856 802.154 802.42 802.676 802.96 803.199 803.492 803.765 804.016 804.289 804.559 804.832 805.115 805.361 805.64 805.915 806.176 806.442 806.744 806.991 807.273 807.56 807.822 808.097 808.351 808.633 808.923 809.18 809.456 809.741 809.899 806.88 803.15 799.779 796.11 792.851 789.077 785.493 782.337 778.581 775.493 772.082 768.742 765.357 761.962 759.014 755.479 752.304 749.294 745.918 743.167 739.842 736.69 733.913 730.812 727.909 724.917 721.84 719.105 716.101 713.068 710.413 707.339 704.802 701.919 699.115 696.425 693.719 691.149 688.394 685.641 683.248 680.431 677.764 675.333 672.631 670.283 667.714 665.115 662.814 660.31 657.873 655.494 652.911 650.729 648.199 645.791 531.119 341.604 340.908 212.719 339.932 297.121 296.83 296.547 253.928 338.175 253.376 337.597 253.016 294.896 336.805 294.558 294.426 252.22 336.189 336.062 293.941 251.865 335.703 293.651 293.558 293.448 251.458 335.143 335.041 293.051 251.112 334.703 334.581 292.664 334.334 167.109 334.068 333.946 292.084 208.556 333.562 291.763 333.283 291.502 249.759 291.249 332.762 332.613 207.806 290.804 249.176 332.113 290.484 207.421 290.307 331.687 248.701 331.524 248.588 289.966 289.922 289.866 248.435 331.286 331.222 248.353 331.075 289.616 330.928 330.864 248.096 330.752 289.391 330.689 247.998 330.613 206.582 330.571 330.634 289.367 330.826 330.978 331.146 331.359 331.581 290.412 332.105 332.469 207.955 332.998 248.124 324.87 324.033 283 282.698 282.389 322.473 161.207 322.37 322.379 282.2 282.334 322.817 201.918
754.623 754.866 755.127 755.344 755.59 755.834 756.056 756.309 756.554 756.778 757.02 757.25 757.503 757.751 757.969 758.216 758.471 758.702 758.948 759.173 759.425 759.65 759.907 760.155 760.38 760.624 760.859 761.112 761.363 761.583 761.832 762.089 762.314 762.569 762.794 763.051 763.302 763.529 763.779 764.025 764.251 764.519 764.744 764.993 765.256 765.476 765.742 765.97 766.226 766.474 766.713 766.966 767.19 767.444 767.705 767.926 768.187 768.421 768.667 768.937 769.163 769.418 769.67 769.917 770.157 770.418 770.657 770.907 771.14 771.402 771.66 771.885 772.161 772.404 772.634 772.888 773.156 773.381 773.649 773.894 774.145 774.401 774.631 774.894 775.149 775.381 775.645 775.885 776.141 776.415 776.643 776.903 777.164 777.402 777.654 777.903 778.161 778.422 778.652 778.925 779.163 779.43 779.67 779.924 780.206 780.437 780.7 780.959 781.189 781.459 781.729 781.969 782.233 782.465 782.742 783.005 783.239 783.517 783.766 784.022 784.285 784.516 784.798 785.033 785.298 785.574 785.814 786.075 786.317 786.58 786.864 787.099 787.366 787.631 787.872 788.147 788.414 788.656 788.919 789.17 789.444 789.714 789.95 790.218 790.496 790.746 791.013 791.258 791.531 791.777 792.056 792.325 792.569 792.834 793.089 793.365 793.637 793.876 794.147 794.426 794.671 794.948 795.192 795.471 795.744 795.991 796.263 796.53 796.776 797.067 797.312 797.583 797.868 798.107 798.396 798.645 798.923 799.192 799.452 799.728 799.97 800.247 800.531 800.771 801.055 801.31 801.577 801.871 802.116 802.394 802.667 802.936 803.198 803.482 803.742 804.013 804.267 804.551 804.832 805.076 805.378 805.642 805.891 806.168 806.46 806.705 806.996 807.263 807.535 807.814 808.065 808.351 808.628 808.881 809.168 809.429 809.708 809.756 807.124 803.349 799.615 796.234 792.695 789.223 785.664 782.094 778.982 775.322 772.15 768.636 765.512 762.239 758.625 755.697 752.387 749.162 746.317 743.021 739.74 736.863 733.72 730.976 727.736 724.699 721.999 718.831 716.02 713.155 710.245 707.698 704.616 702.083 699.232 696.3 693.774 691.046 688.538 685.828 682.94 680.563 677.882 675.244 672.869 670.178 667.59 665.256 662.75 660.378 657.798 655.289 653.108 650.65 648.124 645.859 300.17 299.114 298.445 340.55 255.1 339.739 296.979 254.32 338.698 338.27 253.46 337.693 337.422 252.862 336.947 294.654 294.535 336.467 294.29 210.165 336.087 293.978 293.891 335.737 293.671 293.572 335.396 293.381 251.379 335.069 293.08 209.275 334.727 334.608 250.875 334.366 334.237 208.831 333.995 292.148 208.586 333.604 291.81 291.674 333.211 291.443 208.106 332.821 332.709 249.448 332.51 249.276 332.229 332.15 332.066 331.999 331.925 248.896 331.78 290.291 248.802 290.254 331.711 248.778 290.228 331.599 248.632 331.485 290.075 165.774 331.37 331.314 248.453 289.831 289.823 248.423 331.182 331.16 207.006 331.354 290.042 290.309 331.926 332.227 249.38 332.75 333.06 250.016 333.584 292.085 250.579 287.247 284.199 243.032 283.133 242.443 201.78 322.821 242.101 282.478 322.952 282.718 242.476 323.473
754.619 754.867 755.108 755.334 755.571 755.809 756.053 756.3 756.517 756.779 757.023 757.24 757.49 757.712 757.97 758.217 758.436 758.683 758.916 759.162 759.402 759.648 759.896 760.117 760.373 760.621 760.843 761.108 761.343 761.581 761.833 762.053 762.303 762.559 762.784 763.038 763.266 763.517 763.775 764.002 764.249 764.503 764.741 764.986 765.215 765.468 765.704 765.959 766.217 766.444 766.693 766.929 767.17 767.443 767.666 767.921 768.18 768.402 768.667 768.897 769.152 769.415 769.647 769.897 770.154 770.382 770.654 770.904 771.135 771.39 771.618 771.885 772.141 772.388 772.63 772.888 773.115 773.374 773.638 773.871 774.132 774.359 774.615 774.89 775.118 775.378 775.633 775.884 776.134 776.372 776.63 776.89 777.127 777.393 777.654 777.883 778.164 778.411 778.655 778.913 779.159 779.418 779.654 779.924 780.185 780.422 780.696 780.928 781.194 781.458 781.689 781.951 782.223 782.469 782.73 782.966 783.236 783.5 783.742 784.002 784.252 784.513 784.76 785.013 785.299 785.533 785.799 786.072 786.312 786.582 786.843 787.089 787.345 787.604 787.87 788.137 788.373 788.657 788.923 789.158 789.43 789.671 789.951 790.219 790.457 790.726 790.979 791.246 791.506 791.774 792.044 792.283 792.561 792.831 793.072 793.36 793.616 793.874 794.147 794.388 794.659 794.936 795.182 795.457 795.705 795.978 796.258 796.505 796.773 797.049 797.308 797.574 797.823 798.099 798.356 798.632 798.912 799.16 799.43 799.687 799.949 800.246 800.489 800.766 801.047 801.288 801.577 801.827 802.105 802.39 802.642 802.915 803.194 803.442 803.737 804.01 804.262 804.538 804.787 805.077 805.355 805.624 805.888 806.168 806.415 806.696 806.984 807.237 807.521 807.769 808.047 808.346 808.595 808.878 809.156 809.428 809.7 809.82 807.079 803.321 799.925 796.154 792.476 789.293 785.418 782.04 778.734 775.28 772.014 768.595 765.519 762.038 758.694 755.681 752.245 749.362 746.073 742.846 740.044 736.891 733.651 730.751 727.7 724.963 721.855 718.854 716.115 713.209 710.435 707.559 704.865 702.124 699.059 696.569 693.761 690.913 688.427 685.654 682.989 680.507 677.934 675.358 672.743 670.119 667.838 665.099 662.567 660.34 657.786 655.538 652.95 650.493 648.328 533.075 257.295 256.458 341.298 298.191 297.745 297.493 254.723 339.197 338.823 126.919 338.079 337.833 253.176 337.326 294.982 210.582 294.679 336.637 252.404 294.346 336.266 336.147 336.02 293.902 167.885 335.673 293.621 293.515 293.422 335.218 293.208 334.993 293.005 251.081 334.664 334.536 209.006 292.507 334.166 292.281 333.913 333.795 250.246 333.547 250.094 291.646 333.177 249.801 291.36 291.258 249.563 249.459 332.532 249.337 290.831 249.225 290.735 249.155 332.188 332.157 290.637 290.622 249.096 332.167 332.129 290.519 290.5 332.023 290.558 290.476 331.942 290.457 331.923 331.889 207.482 331.875 290.361 290.355 331.891 332.086 207.678 332.53 332.811 291.528 250.091 333.698 292.277 334.275 334.556 292.929 293.246 251.472 244.354 243.647 324.226 242.822 323.38 282.903 242.485 323.36 283.031 323.59 242.839 323.974
754.619 754.858 755.087 755.33 755.551 755.802 756.028 756.266 756.531 756.748 756.996 757.243 757.463 757.709 757.963 758.189 758.437 758.655 758.916 759.14 759.395 759.643 759.863 760.11 760.349 760.599 760.846 761.065 761.318 761.578 761.803 762.048 762.275 762.539 762.786 763.011 763.257 763.511 763.737 764 764.246 764.474 764.739 764.959 765.214 765.442 765.701 765.949 766.194 766.446 766.672 766.922 767.186 767.408 767.671 767.921 768.15 768.418 768.638 768.897 769.148 769.377 769.637 769.873 770.124 770.384 770.609 770.875 771.132 771.367 771.614 771.86 772.114 772.358 772.629 772.854 773.114 773.347 773.615 773.869 774.101 774.358 774.618 774.845 775.124 775.372 775.611 775.877 776.109 776.365 776.607 776.862 777.117 777.369 777.624 777.889 778.118 778.39 778.646 778.887 779.155 779.394 779.663 779.898 780.157 780.422 780.651 780.925 781.164 781.42 781.694 781.927 782.2 782.461 782.696 782.958 783.213 783.475 783.732 783.977 784.246 784.49 784.753 785.028 785.263 785.53 785.792 786.049 786.312 786.571 786.821 787.084 787.324 787.597 787.842 788.1 788.388 788.624 788.893 789.162 789.4 789.668 789.944 790.189 790.458 790.696 790.978 791.223 791.499 791.768 792.007 792.276 792.536 792.808 793.076 793.313 793.589 793.87 794.116 794.382 794.629 794.915 795.184 795.428 795.695 795.971 796.217 796.503 796.77 797.018 797.306 797.545 797.823 798.071 798.353 798.622 798.888 799.161 799.407 799.679 799.967 800.207 800.494 800.765 801.015 801.306 801.546 801.827 802.1 802.348 802.631 802.888 803.162 803.445 803.689 803.979 804.258 804.513 804.782 805.049 805.326 805.592 805.886 806.131 806.414 806.667 806.959 807.235 807.488 807.768 808.051 808.298 808.601 808.871 809.131 809.42 809.673 809.735 807.206 803.509 799.852 796.268 792.687 788.996 785.835 782.111 778.645 775.421 771.861 768.711 765.212 762.174 758.854 755.499 752.618 749.201 746.25 743.11 739.792 736.991 733.749 730.663 727.92 724.881 721.945 718.966 716.056 713.319 710.326 707.642 704.768 701.802 699.284 696.434 693.685 690.996 688.266 685.599 683.058 680.399 677.987 675.276 672.863 670.333 667.537 665.269 662.7 660.159 657.918 655.425 652.871 650.629 648.177 495.424 342.879 299.427 298.815 341.004 340.555 255.086 339.756 254.517 338.965 338.618 338.27 211.213 337.725 253.101 252.969 294.982 294.838 294.737 336.712 336.583 252.348 336.325 252.137 294.055 335.953 209.897 335.728 293.676 293.562 209.598 335.263 293.268 293.161 334.933 334.815 334.717 209.123 334.467 250.759 292.433 292.343 250.498 333.881 333.779 333.659 208.471 208.375 250.002 333.246 291.498 249.754 332.912 208.041 332.768 332.7 207.937 332.639 332.623 249.442 332.571 332.555 332.571 332.584 249.419 291.022 332.531 290.978 291 332.611 291.026 332.522 332.575 291.072 291.067 332.627 332.673 291.131 332.737 332.779 291.398 333.228 250.005 208.575 334.079 334.38 292.775 334.939 335.209 293.526 335.641 335.845 168.1 334.007 286.781 284.673 324.518 283.605 283.422 323.913 283.451 242.984 324.183 324.449 243.587
754.599 754.831 755.062 755.311 755.551 755.774 756.025 756.274 756.496 756.756 756.967 757.221 757.468 757.687 757.933 758.17 758.411 758.663 758.881 759.141 759.367 759.621 759.871 760.089 760.357 760.593 760.826 761.072 761.296 761.547 761.804 762.029 762.282 762.503 762.764 763.015 763.238 763.491 763.738 763.981 764.223 764.455 764.705 764.966 765.189 765.443 765.682 765.93 766.16 766.406 766.676 766.903 767.153 767.416 767.645 767.898 768.151 768.381 768.647 768.871 769.129 769.379 769.609 769.876 770.127 770.365 770.618 770.847 771.109 771.364 771.591 771.847 772.093 772.339 772.594 772.863 773.088 773.347 773.581 773.85 774.105 774.335 774.598 774.853 775.08 775.35 775.587 775.848 776.117 776.346 776.601 776.867 777.098 777.372 777.625 777.862 778.127 778.353 778.627 778.863 779.131 779.392 779.633 779.885 780.136 780.395 780.659 780.89 781.172 781.429 781.667 781.934 782.164 782.442 782.7 782.938 783.197 783.453 783.703 783.98 784.214 784.495 784.732 784.995 785.271 785.503 785.772 786.032 786.29 786.542 786.793 787.064 787.324 787.566 787.839 788.109 788.351 788.633 788.862 789.137 789.406 789.643 789.911 790.168 790.43 790.704 790.941 791.223 791.469 791.744 792.016 792.253 792.545 792.801 793.054 793.321 793.565 793.837 794.116 794.361 794.636 794.876 795.159 795.432 795.675 795.95 796.219 796.483 796.746 796.997 797.269 797.553 797.795 798.071 798.332 798.601 798.851 799.118 799.412 799.659 799.93 800.216 800.466 800.74 801.016 801.266 801.555 801.799 802.079 802.351 802.601 802.892 803.164 803.423 803.699 803.948 804.233 804.51 804.757 805.036 805.303 805.571 805.848 806.141 806.385 806.668 806.922 807.214 807.492 807.742 808.029 808.306 808.553 808.847 809.105 809.389 809.682 809.711 807.064 803.225 799.911 796.023 792.462 789.161 785.507 782.413 778.702 775.536 771.972 768.541 765.394 762.146 758.925 755.644 752.318 749.448 745.958 742.816 739.936 736.719 733.989 730.713 727.687 724.929 721.951 719.031 716.21 713.104 710.513 707.414 704.829 701.988 699.024 696.558 693.73 691.002 688.326 685.741 683.184 680.441 677.836 675.423 672.733 670.095 667.75 665.033 662.845 660.243 657.718 655.504 653.029 650.671 648.289 419.76 300.254 342.32 256.35 341.275 298.133 340.327 297.41 169.761 339.162 211.728 253.828 295.851 337.861 295.463 337.491 337.336 252.879 337.039 336.911 252.572 294.559 336.51 210.232 336.259 294.126 210.021 293.908 251.835 251.727 251.669 335.435 293.416 335.201 293.21 251.247 334.871 292.919 251.002 209.078 292.609 208.941 334.218 334.103 250.492 292.151 333.771 333.681 291.915 333.505 250.075 333.291 333.215 249.869 333.098 291.438 249.766 291.384 333.019 333.009 332.997 249.729 333.007 333.029 249.793 249.8 333.067 333.101 291.523 333.162 291.486 333.201 291.65 208.323 291.723 333.417 333.474 333.542 333.6 208.534 333.946 334.213 292.647 251.013 293.178 251.443 335.49 335.721 293.986 336.162 336.338 252.407 294.595 336.914 210.738 329.814 285.245 284.553 324.824 284.054 284.004 324.795 328.015 334.243 212.64
754.592 754.803 755.061 755.283 755.523 755.782 756.006 756.246 756.496 756.711 756.961 757.219 757.442 757.684 757.908 758.166 758.411 758.632 758.895 759.114 759.358 759.599 759.842 760.095 760.314 760.574 760.818 761.048 761.296 761.521 761.782 762.028 762.252 762.502 762.762 762.982 763.236 763.485 763.717 763.974 764.2 764.448 764.682 764.922 765.194 765.416 765.673 765.906 766.158 766.422 766.645 766.901 767.149 767.39 767.645 767.873 768.124 768.38 768.602 768.868 769.1 769.356 769.617 769.848 770.104 770.357 770.585 770.839 771.086 771.34 771.596 771.823 772.087 772.331 772.571 772.834 773.093 773.32 773.577 773.842 774.074 774.337 774.589 774.827 775.096 775.327 775.584 775.838 776.072 776.347 776.58 776.833 777.096 777.332 777.602 777.861 778.096 778.352 778.597 778.863 779.108 779.367 779.625 779.861 780.131 780.372 780.625 780.904 781.136 781.403 781.667 781.898 782.162 782.431 782.678 782.936 783.176 783.446 783.711 783.951 784.229 784.463 784.724 784.99 785.223 785.51 785.744 786.011 786.283 786.512 786.792 787.033 787.294 787.575 787.818 788.078 788.35 788.584 788.855 789.135 789.378 789.641 789.884 790.164 790.43 790.67 790.956 791.194 791.459 791.72 791.984 792.259 792.497 792.78 793.045 793.295 793.564 793.809 794.092 794.359 794.604 794.875 795.158 795.397 795.673 795.944 796.195 796.475 796.72 796.99 797.244 797.506 797.8 798.042 798.321 798.575 798.849 799.136 799.378 799.656 799.926 800.188 800.466 800.713 800.986 801.265 801.507 801.796 802.047 802.326 802.61 802.861 803.14 803.415 803.663 803.939 804.208 804.484 804.763 805.01 805.297 805.563 805.823 806.11 806.391 806.638 806.918 807.206 807.459 807.745 808.019 808.278 808.571 808.822 809.102 809.378 809.632 809.695 807.159 803.494 799.715 796.359 792.578 788.962 785.713 782.224 778.899 775.336 772.074 768.668 765.302 762.253 758.801 755.738 752.553 749.082 746.214 742.958 739.753 736.978 733.826 730.651 727.765 724.777 722.011 718.938 715.941 713.256 710.172 707.606 704.756 701.873 699.375 696.326 693.857 691.057 688.241 685.886 683.032 680.596 677.976 675.182 672.785 670.238 667.601 665.351 662.76 660.108 657.829 655.385 653.135 650.572 648.146 339.143 343.202 342.559 299.271 256.153 341.044 340.526 255.093 339.727 254.469 296.566 338.62 211.469 253.547 295.641 337.704 253.155 337.39 337.258 337.106 336.963 336.837 168.348 294.495 294.377 252.234 336.196 294.059 251.948 335.831 335.717 209.738 335.474 335.371 251.439 335.147 335.042 293.069 334.841 334.742 209.161 334.549 250.85 250.743 334.218 250.588 334.05 333.954 250.414 250.333 333.679 291.894 208.49 333.517 250.09 333.435 333.415 208.382 333.411 291.76 208.375 333.423 291.741 291.78 333.478 333.548 250.184 291.911 333.665 166.854 333.789 333.886 333.968 334.039 250.542 208.949 334.32 334.379 292.634 334.579 292.96 335.056 335.296 335.497 293.756 335.993 336.224 252.348 294.552 252.585 336.901 337.056 295.118 253.124 337.743 295.777 338.592 340.28 338.16 336.867 339.814 343.01 305.538 349.73 350.29
754.557 754.807 755.05 755.265 755.521 755.766 755.993 756.229 756.466 756.709 756.96 757.181 757.423 757.681 757.905 758.156 758.372 758.633 758.876 759.11 759.359 759.586 759.827 760.065 760.311 760.56 760.78 761.04 761.293 761.511 761.771 762.008 762.251 762.499 762.723 762.971 763.213 763.45 763.706 763.938 764.187 764.452 764.673 764.926 765.174 765.414 765.661 765.905 766.155 766.381 766.633 766.897 767.119 767.374 767.604 767.853 768.127 768.35 768.606 768.857 769.08 769.346 769.58 769.836 770.091 770.317 770.585 770.839 771.067 771.336 771.586 771.819 772.08 772.336 772.561 772.821 773.073 773.318 773.577 773.805 774.062 774.326 774.549 774.819 775.055 775.314 775.58 775.815 776.069 776.331 776.576 776.821 777.072 777.329 777.59 777.821 778.089 778.349 778.581 778.858 779.088 779.364 779.602 779.856 780.123 780.352 780.625 780.862 781.126 781.386 781.624 781.898 782.159 782.394 782.674 782.932 783.171 783.434 783.673 783.939 784.208 784.448 784.727 784.958 785.227 785.468 785.728 786.006 786.245 786.516 786.78 787.014 787.291 787.557 787.804 788.061 788.317 788.582 788.854 789.094 789.357 789.638 789.88 790.154 790.388 790.671 790.936 791.19 791.46 791.707 791.968 792.227 792.494 792.765 793.003 793.286 793.561 793.798 794.08 794.338 794.602 794.872 795.115 795.384 795.648 795.905 796.183 796.436 796.706 796.994 797.234 797.509 797.779 798.04 798.309 798.574 798.846 799.091 799.365 799.653 799.893 800.171 800.421 800.692 800.989 801.232 801.51 801.783 802.026 802.315 802.569 802.848 803.126 803.371 803.663 803.939 804.187 804.48 804.751 805.005 805.289 805.567 805.812 806.095 806.369 806.636 806.918 807.166 807.446 807.733 807.976 808.27 808.526 808.808 809.097 809.353 809.63 809.727 806.99 803.449 799.843 796.189 792.522 789.308 785.607 782.054 778.912 775.193 772.137 768.514 765.411 762.116 758.708 755.803 752.357 749.402 746.154 742.97 740.079 736.791 733.681 730.911 727.631 724.638 721.893 718.902 716.204 713.221 710.233 707.591 704.549 702.048 699.16 696.608 693.863 690.948 688.471 685.688 683 680.634 677.849 675.202 672.772 670.261 667.769 665.228 662.626 660.35 657.878 655.266 653.023 650.516 610.66 301.38 343.41 342.782 299.519 341.791 256.024 298.197 340.325 339.915 254.694 339.177 338.847 296.265 338.327 295.849 253.449 337.743 295.414 253.098 337.31 337.171 294.9 294.793 336.768 168.304 336.514 294.325 294.226 336.136 294.013 335.893 293.807 335.67 167.786 335.449 209.614 251.438 335.156 293.167 251.22 334.869 334.767 250.989 292.731 334.497 250.798 334.327 334.231 208.831 334.064 250.498 208.763 333.927 333.886 250.357 333.816 292.066 292.065 292.094 250.358 333.827 333.846 292.119 333.883 333.929 292.29 334.095 334.137 250.603 334.227 250.807 250.89 292.82 292.9 292.921 334.927 335.086 251.354 335.339 293.482 251.707 335.859 294.059 294.235 336.48 336.653 294.738 336.969 337.1 252.975 253.068 337.677 337.935 295.895 338.701 339.738 341.289 342.484 300.367 346.354 348.837 305.652 349.898 350.551 307.208
754.558 754.8 755.018 755.278 755.499 755.742 755.985 756.207 756.46 756.687 756.929 757.179 757.404 757.656 757.905 758.122 758.371 758.623 758.855 759.109 759.334 759.58 759.801 760.06 760.308 760.529 760.794 761.014 761.248 761.517 761.736 761.988 762.244 762.477 762.715 762.949 763.206 763.458 763.686 763.933 764.187 764.406 764.674 764.897 765.149 765.411 765.639 765.898 766.125 766.374 766.61 766.869 767.124 767.347 767.6 767.859 768.082 768.352 768.597 768.831 769.096 769.323 769.577 769.827 770.061 770.315 770.556 770.806 771.065 771.298 771.563 771.818 772.05 772.289 772.563 772.793 773.047 773.315 773.547 773.8 774.034 774.306 774.564 774.792 775.054 775.308 775.541 775.813 776.066 776.301 776.574 776.798 777.064 777.324 777.554 777.814 778.064 778.326 778.584 778.813 779.087 779.324 779.591 779.855 780.092 780.369 780.596 780.863 781.121 781.358 781.62 781.872 782.128 782.396 782.629 782.903 783.168 783.409 783.669 783.929 784.18 784.448 784.698 784.956 785.197 785.464 785.736 785.977 786.246 786.508 786.745 787.028 787.268 787.532 787.796 788.036 788.312 788.558 788.821 789.092 789.336 789.611 789.88 790.116 790.386 790.661 790.913 791.188 791.432 791.7 791.941 792.222 792.491 792.731 793.019 793.258 793.512 793.805 794.043 794.317 794.594 794.848 795.107 795.361 795.64 795.914 796.162 796.43 796.706 796.944 797.236 797.477 797.752 798.036 798.285 798.566 798.813 799.083 799.34 799.622 799.899 800.142 800.417 800.698 800.941 801.234 801.501 801.756 802.044 802.291 802.566 802.838 803.092 803.37 803.631 803.903 804.185 804.438 804.726 805.004 805.256 805.517 805.814 806.065 806.341 806.632 806.885 807.16 807.415 807.711 807.992 808.24 808.525 808.801 809.055 809.351 809.626 809.726 806.792 803.55 799.733 796.052 792.81 789.193 785.74 782.155 778.66 775.586 771.955 768.827 765.343 761.93 758.9 755.393 752.542 749.215 746.021 743.123 739.943 736.917 733.863 730.698 727.981 724.8 721.758 719.003 716.068 713.162 710.373 707.432 704.7 701.907 699.316 696.479 693.611 691.09 688.301 685.61 683.194 680.332 677.928 675.301 672.701 670.344 667.673 665.3 662.79 660.224 657.928 655.376 652.881 650.719 497.345 344.565 214.758 257.231 342.541 342.033 256.14 341.027 340.549 340.152 339.741 296.977 254.33 338.796 296.282 296.093 338.168 295.758 337.83 337.683 253.137 295.189 252.912 337.094 294.838 336.846 294.618 336.587 294.409 252.245 210.12 294.084 335.99 251.905 335.777 335.667 335.566 251.607 251.547 251.46 335.189 251.314 251.229 334.926 251.124 334.779 334.686 250.952 250.888 334.454 209.023 334.378 292.553 334.307 334.253 292.439 250.641 334.205 208.869 250.643 292.434 334.253 250.704 334.289 250.746 334.397 334.494 334.579 209.089 334.669 251.078 334.959 335.137 251.482 251.582 335.469 335.631 251.875 335.933 294.062 336.246 294.42 210.373 336.748 336.909 337.05 210.741 337.351 253.129 295.49 337.857 295.848 338.372 338.639 339.279 340.775 341.97 300.012 300.496 344.689 304.879 349.489 350.093 350.733 263.406 351.787
754.549 754.761 755.019 755.26 755.481 755.723 755.961 756.202 756.452 756.669 756.916 757.176 757.392 757.642 757.865 758.123 758.367 758.589 758.836 759.07 759.315 759.555 759.792 760.05 760.271 760.528 760.776 760.997 761.252 761.498 761.736 761.977 762.208 762.458 762.719 762.939 763.193 763.443 763.672 763.93 764.156 764.404 764.658 764.878 765.141 765.371 765.629 765.861 766.115 766.378 766.6 766.85 767.104 767.326 767.6 767.847 768.079 768.337 768.557 768.825 769.055 769.304 769.572 769.805 770.06 770.312 770.54 770.795 771.062 771.294 771.544 771.777 772.044 772.287 772.547 772.789 773.04 773.274 773.533 773.797 774.03 774.291 774.545 774.775 775.049 775.282 775.538 775.794 776.027 776.294 776.533 776.788 777.051 777.288 777.554 777.815 778.044 778.306 778.572 778.817 779.084 779.32 779.58 779.813 780.086 780.347 780.58 780.858 781.09 781.337 781.62 781.851 782.117 782.386 782.632 782.883 783.129 783.4 783.666 783.906 784.161 784.416 784.677 784.945 785.177 785.463 785.719 785.964 786.236 786.466 786.746 787.008 787.248 787.51 787.769 788.031 788.303 788.538 788.807 789.089 789.324 789.594 789.838 790.118 790.382 790.624 790.892 791.146 791.412 791.673 791.93 792.211 792.451 792.73 792.999 793.24 793.516 793.784 794.042 794.304 794.555 794.827 795.111 795.35 795.626 795.897 796.147 796.427 796.672 796.943 797.219 797.458 797.744 797.993 798.274 798.526 798.802 799.087 799.329 799.601 799.877 800.119 800.417 800.686 800.937 801.218 801.458 801.748 801.998 802.27 802.562 802.814 803.091 803.366 803.614 803.891 804.182 804.434 804.706 804.959 805.25 805.515 805.797 806.061 806.333 806.588 806.87 807.157 807.411 807.695 807.971 808.221 808.52 808.773 809.052 809.33 809.584 809.654 807.171 803.479 799.71 796.344 792.609 788.962 785.807 782.224 778.617 775.341 771.792 768.679 765.289 762.276 758.788 755.472 752.553 749.077 746.218 743.199 739.757 736.978 733.814 730.638 727.762 724.857 722.021 718.938 715.938 713.244 710.408 707.61 704.756 701.862 699.363 696.323 693.63 691.066 688.241 685.883 683.021 680.377 677.966 675.36 672.804 670.245 667.604 665.34 662.778 660.108 657.898 655.375 653.132 650.562 421.584 301.731 300.875 343.318 342.807 299.499 341.789 255.977 255.614 340.371 255.008 212.286 339.343 339.05 254.115 338.638 211.539 295.959 338.05 337.913 295.539 295.396 337.45 252.976 337.18 337.044 252.687 294.693 252.488 336.533 294.362 336.309 252.154 336.088 335.993 293.909 335.778 293.732 251.707 335.51 293.499 251.519 335.286 335.209 209.441 335.062 293.107 293.034 334.855 292.979 251.112 251.036 334.697 292.851 334.636 334.602 292.782 334.606 292.78 334.61 292.82 251.02 334.697 334.712 251.067 334.873 334.975 293.165 335.132 335.189 209.583 335.513 293.694 251.916 336.026 336.157 252.227 336.465 252.394 252.547 336.877 294.93 295 337.291 337.46 211.015 337.743 253.39 295.867 338.358 338.561 254.117 339.209 340.328 256.021 342.364 343.176 214.932 344.307 260.226 305.916 306.499 307.082 307.526 351.945 352.396
754.528 754.759 755.01 755.239 755.479 755.703 755.954 756.202 756.418 756.684 756.915 757.148 757.396 757.613 757.862 758.116 758.339 758.59 758.809 759.062 759.294 759.548 759.798 760.016 760.264 760.521 760.753 761 761.223 761.473 761.732 761.957 762.203 762.43 762.674 762.941 763.166 763.417 763.666 763.892 764.151 764.402 764.63 764.892 765.115 765.37 765.607 765.858 766.105 766.333 766.602 766.828 767.079 767.343 767.564 767.825 768.078 768.307 768.556 768.796 769.055 769.302 769.534 769.795 770.052 770.282 770.542 770.771 771.034 771.29 771.517 771.773 772.018 772.284 772.517 772.788 773.012 773.273 773.506 773.758 774.028 774.26 774.522 774.778 775.005 775.274 775.533 775.771 776.02 776.269 776.526 776.79 777.023 777.278 777.55 777.785 778.05 778.277 778.552 778.808 779.055 779.317 779.556 779.809 780.06 780.319 780.582 780.813 781.087 781.354 781.583 781.857 782.107 782.363 782.624 782.86 783.121 783.376 783.626 783.896 784.137 784.41 784.654 784.91 785.192 785.427 785.693 785.956 786.213 786.464 786.736 786.985 787.246 787.489 787.762 788.031 788.265 788.554 788.806 789.059 789.328 789.564 789.834 790.11 790.352 790.625 790.862 791.138 791.389 791.666 791.937 792.174 792.444 792.723 792.975 793.243 793.485 793.756 794.038 794.283 794.55 794.797 795.062 795.352 795.596 795.869 796.14 796.386 796.667 796.94 797.187 797.473 797.715 797.992 798.25 798.522 798.792 799.039 799.332 799.577 799.85 800.137 800.378 800.661 800.936 801.186 801.457 801.717 801.998 802.268 802.52 802.803 803.083 803.333 803.617 803.866 804.151 804.43 804.677 804.955 805.222 805.511 805.765 806.059 806.303 806.587 806.841 807.115 807.409 807.661 807.947 808.225 808.472 808.765 809.046 809.306 809.577 809.652 807.064 803.237 799.896 796.271 792.447 789.17 785.512 782.409 778.688 775.252 771.976 768.527 765.403 762.132 758.922 755.631 752.328 749.448 746.06 742.803 740.019 736.729 733.751 730.735 727.675 724.933 721.939 719.027 716.21 713.186 710.501 707.501 704.838 702.067 699.044 696.547 693.734 690.991 688.322 685.741 682.967 680.445 677.832 675.413 672.723 670.095 667.817 665.041 662.638 660.241 657.718 655.512 653.019 650.484 302.927 345.033 344.224 343.563 214.439 342.531 256.52 298.876 298.454 255.51 297.731 339.902 339.613 254.51 339.092 211.805 338.678 338.481 253.736 338.133 211.259 337.833 253.262 295.332 210.873 337.259 337.135 294.863 336.872 210.46 294.558 294.449 336.425 336.33 336.214 336.119 209.996 335.945 335.872 335.783 251.783 335.637 293.621 251.606 293.511 209.614 335.309 293.368 293.31 251.399 335.136 251.315 335.062 335.031 209.378 335.006 293.151 293.132 335.013 293.154 251.321 335.089 335.11 335.146 335.252 251.497 251.57 335.553 293.668 335.745 293.961 294.092 336.24 336.4 294.514 210.432 294.769 337.05 337.209 337.343 337.497 295.429 337.736 253.412 211.272 338.141 338.341 296.246 338.817 254.332 297.09 297.742 341.157 256.543 299.899 343.597 343.955 344.38 258.633 347.063 350.437 263.276 263.713 352.1 308.408 264.694
754.509 754.756 754.975 755.236 755.476 755.698 755.943 756.162 756.418 756.664 756.886 757.129 757.36 757.594 757.861 758.078 758.328 758.581 758.812 759.065 759.283 759.535 759.758 760.018 760.266 760.486 760.734 760.969 761.205 761.473 761.693 761.944 762.2 762.425 762.671 762.905 763.162 763.397 763.64 763.89 764.142 764.363 764.63 764.873 765.105 765.367 765.595 765.854 766.082 766.331 766.586 766.825 767.071 767.302 767.557 767.814 768.038 768.3 768.554 768.78 769.05 769.279 769.531 769.783 770.016 770.27 770.531 770.762 771.021 771.254 771.516 771.773 771.998 772.245 772.518 772.748 773.002 773.27 773.495 773.756 774.008 774.259 774.503 774.746 775.009 775.26 775.496 775.76 776.022 776.256 776.53 776.752 777.019 777.279 777.51 777.769 778.018 778.272 778.538 778.768 779.041 779.279 779.546 779.81 780.039 780.322 780.571 780.816 781.075 781.311 781.575 781.846 782.083 782.35 782.582 782.857 783.122 783.356 783.623 783.884 784.133 784.402 784.633 784.91 785.15 785.416 785.69 785.932 786.193 786.461 786.699 786.982 787.243 787.484 787.75 787.988 788.266 788.532 788.774 789.038 789.288 789.543 789.833 790.069 790.34 790.615 790.866 791.141 791.378 791.651 791.894 792.175 792.445 792.684 792.954 793.209 793.465 793.757 793.996 794.268 794.547 794.792 795.059 795.312 795.592 795.848 796.112 796.383 796.657 796.898 797.188 797.452 797.704 797.989 798.236 798.518 798.767 799.036 799.314 799.574 799.842 800.092 800.37 800.649 800.893 801.177 801.453 801.7 801.993 802.242 802.517 802.79 803.044 803.321 803.604 803.855 804.137 804.39 804.675 804.955 805.2 805.469 805.766 806.016 806.292 806.584 806.829 807.112 807.387 807.659 807.925 808.189 808.475 808.75 809.005 809.294 809.578 809.677 806.777 803.56 799.738 796.037 792.796 789.178 785.737 782.266 778.67 775.586 771.95 768.813 765.33 761.93 758.987 755.404 752.278 749.219 746.021 743.133 739.931 736.677 733.851 730.706 727.985 724.797 721.759 719.081 716.072 713.15 710.382 707.42 704.894 701.896 699.323 696.494 693.608 691.079 688.372 685.614 683.194 680.328 677.711 675.309 672.691 670.362 667.663 665.095 662.79 660.29 657.936 655.564 652.884 569.516 346.28 345.305 301.419 300.804 300.427 342.771 171.167 341.777 341.307 340.923 340.537 297.725 254.97 339.602 296.983 211.984 338.95 338.753 338.539 338.386 253.668 211.283 337.916 253.326 295.428 337.486 337.346 337.224 294.962 210.625 168.456 336.761 294.581 252.419 336.453 336.372 294.264 336.232 294.114 126.029 335.997 335.922 251.88 335.792 251.792 251.792 293.688 293.66 251.699 293.61 335.501 293.521 335.451 293.531 335.416 293.503 209.629 335.419 293.508 251.576 335.468 209.682 251.665 293.665 335.701 335.807 335.904 336.006 210.052 336.284 336.439 294.51 252.554 294.814 337.075 337.219 253.025 253.188 337.747 295.66 253.584 338.22 253.761 338.476 338.651 296.504 254.32 339.29 339.554 212.796 341.007 213.401 342.415 343.082 214.76 301.076 258.259 301.639 302.098 174.095 307.283 351.672 352.173 352.616 264.731 309.044
754.485 754.727 754.977 755.193 755.449 755.695 755.92 756.158 756.394 756.638 756.888 757.108 757.352 757.61 757.826 758.083 758.319 758.559 758.805 759.038 759.287 759.507 759.755 760.011 760.237 760.487 760.707 760.968 761.218 761.439 761.691 761.936 762.178 762.426 762.649 762.898 763.16 763.377 763.633 763.864 764.107 764.378 764.599 764.852 765.101 765.322 765.588 765.816 766.081 766.328 766.557 766.823 767.044 767.301 767.531 767.779 768.032 768.276 768.531 768.783 769.006 769.272 769.526 769.761 770.01 770.242 770.511 770.764 770.993 771.244 771.512 771.743 772.004 772.26 772.486 772.739 772.998 773.224 773.502 773.729 773.988 774.251 774.474 774.745 774.978 775.232 775.504 775.74 775.992 776.256 776.483 776.746 777.017 777.252 777.507 777.743 778.014 778.272 778.505 778.782 779.013 779.27 779.523 779.779 780.045 780.276 780.55 780.807 781.049 781.31 781.548 781.822 782.081 782.318 782.581 782.855 783.087 783.355 783.617 783.861 784.132 784.371 784.651 784.88 785.15 785.412 785.65 785.921 786.167 786.43 786.701 786.935 787.213 787.481 787.725 787.983 788.239 788.504 788.776 789.015 789.28 789.56 789.795 790.074 790.33 790.591 790.858 791.111 791.382 791.621 791.89 792.168 792.414 792.685 792.924 793.208 793.48 793.72 793.993 794.26 794.523 794.792 795.035 795.305 795.59 795.826 796.104 796.355 796.619 796.913 797.154 797.429 797.699 797.94 798.229 798.477 798.765 799.033 799.282 799.572 799.812 800.092 800.341 800.611 800.886 801.151 801.429 801.703 801.946 802.234 802.511 802.766 803.037 803.29 803.583 803.857 804.107 804.38 804.671 804.923 805.206 805.485 805.731 806.006 806.287 806.533 806.836 807.083 807.365 807.652 807.894 808.189 808.443 808.718 809.015 809.271 809.546 809.669 807.244 803.434 799.541 796.2 792.622 789.333 785.593 782.059 778.912 775.189 772.123 768.745 765.435 762.125 758.712 755.789 752.344 749.136 746.151 742.957 740.075 736.778 733.69 730.898 727.822 724.638 721.975 718.923 715.961 713.23 710.221 707.588 704.538 702.057 699.16 696.378 693.863 691.024 688.475 685.773 683.008 680.634 677.852 675.192 672.78 670.251 667.767 665.218 662.622 660.354 657.868 655.256 653.088 612.734 303.236 302.468 344.761 344.079 300.583 257.272 342.516 299.273 298.872 298.513 255.642 340.515 340.2 339.935 297.235 297.019 254.425 339.031 296.47 253.981 338.466 338.326 253.621 338.001 337.844 211.034 337.586 295.28 210.811 295.088 337.12 210.621 294.791 294.696 210.475 336.646 336.573 210.295 336.419 336.352 294.267 336.239 252.155 210.065 336.089 336.051 252.019 335.979 335.939 293.936 335.89 293.891 209.901 335.837 251.892 251.868 293.838 293.864 209.867 335.832 251.911 335.891 335.938 251.996 336.11 252.164 294.255 294.388 294.5 168.384 336.894 337.07 252.942 337.423 253.178 295.526 337.924 295.834 211.42 296.137 338.644 211.817 339.019 254.446 296.947 297.169 339.789 297.652 340.939 341.504 213.764 342.352 256.973 342.927 343.187 343.39 257.747 343.773 344.203 258.663 349.904 349.594 260.382 303.358 343.507 342.213
754.489 754.73 754.958 755.201 755.421 755.673 755.918 756.136 756.382 756.618 756.849 757.112 757.334 757.578 757.834 758.058 758.3 758.525 758.786 759.009 759.264 759.513 759.733 759.981 760.218 760.461 760.714 760.934 761.187 761.447 761.665 761.918 762.163 762.405 762.654 762.878 763.126 763.377 763.605 763.861 764.115 764.342 764.608 764.825 765.082 765.33 765.568 765.817 766.061 766.305 766.538 766.789 767.051 767.275 767.531 767.787 768.01 768.284 768.525 768.763 769.014 769.243 769.504 769.737 769.991 770.249 770.475 770.741 770.997 771.225 771.481 771.744 771.978 772.224 772.495 772.72 772.979 773.232 773.478 773.726 773.964 774.222 774.482 774.709 774.979 775.238 775.474 775.74 775.973 776.229 776.491 776.725 776.981 777.233 777.48 777.751 777.982 778.252 778.51 778.743 779.018 779.25 779.525 779.78 780.018 780.285 780.512 780.788 781.025 781.283 781.548 781.787 782.062 782.322 782.557 782.82 783.096 783.334 783.594 783.836 784.108 784.372 784.612 784.889 785.123 785.392 785.652 785.892 786.171 786.432 786.68 786.944 787.183 787.456 787.723 787.959 788.226 788.483 788.734 789.02 789.26 789.525 789.804 790.047 790.31 790.554 790.838 791.08 791.357 791.627 791.866 792.135 792.394 792.657 792.932 793.171 793.446 793.729 793.966 794.24 794.506 794.77 795.041 795.284 795.553 795.826 796.073 796.352 796.628 796.875 797.164 797.4 797.679 797.949 798.208 798.478 798.744 799.008 799.262 799.535 799.82 800.064 800.342 800.62 800.862 801.16 801.422 801.681 801.954 802.204 802.487 802.741 803.017 803.298 803.543 803.832 804.112 804.359 804.637 804.924 805.177 805.445 805.74 805.985 806.267 806.543 806.81 807.08 807.339 807.62 807.902 808.15 808.443 808.725 808.982 809.271 809.525 809.641 806.898 803.514 799.837 796.263 792.782 789.007 785.821 782.136 778.631 775.517 771.861 768.8 765.209 761.917 758.865 755.486 752.623 749.188 746.258 743.097 739.88 737.013 733.745 730.668 727.92 724.869 721.698 718.975 716.044 713.332 710.315 707.409 704.788 701.798 699.288 696.423 693.674 691.167 688.275 685.588 683.055 680.388 677.995 675.276 672.649 670.334 667.745 665.272 662.871 660.167 657.908 655.438 652.861 575.339 303.548 345.996 345.096 344.38 257.86 300.363 299.979 256.693 341.892 341.512 298.497 340.858 297.998 255.158 297.475 339.766 212.23 339.327 296.702 338.913 338.748 338.581 253.798 338.255 338.085 253.446 295.583 253.279 337.584 337.464 295.177 210.794 337.144 252.793 210.616 294.82 252.636 294.669 336.697 210.424 210.376 336.568 336.518 252.367 336.431 336.401 336.373 336.348 336.335 210.183 336.295 294.238 252.194 336.24 294.218 336.236 336.231 210.133 336.211 336.231 252.18 336.294 252.276 210.268 336.502 336.609 252.584 294.724 294.835 337.113 337.291 295.293 337.667 295.639 338.058 295.961 296.12 338.609 254.127 339.055 296.817 339.473 254.757 297.392 212.542 340.294 340.685 213.141 298.666 256.184 299.07 299.285 299.407 256.701 342.343 342.457 256.967 342.42 299.559 299.189 298.715 298.752 213.424 341.587 341.609 256.226
754.462 754.708 754.951 755.17 755.414 755.651 755.894 756.141 756.359 756.613 756.865 757.082 757.332 757.574 757.809 758.058 758.276 758.524 758.777 759.003 759.262 759.487 759.73 759.955 760.214 760.461 760.683 760.948 761.183 761.402 761.671 761.891 762.143 762.398 762.623 762.87 763.104 763.349 763.613 763.842 764.086 764.342 764.562 764.825 765.052 765.305 765.563 765.796 766.054 766.281 766.53 766.766 767.008 767.28 767.504 767.757 768.016 768.239 768.505 768.754 768.989 769.234 769.481 769.734 769.989 770.219 770.473 770.739 770.964 771.223 771.454 771.721 771.977 772.224 772.448 772.722 772.949 773.206 773.474 773.706 773.959 774.194 774.449 774.724 774.952 775.211 775.468 775.701 775.968 776.226 776.462 776.716 776.959 777.225 777.487 777.715 777.975 778.244 778.487 778.746 778.983 779.248 779.486 779.756 780.017 780.254 780.511 780.758 781.025 781.289 781.521 781.783 782.054 782.291 782.56 782.796 783.066 783.331 783.57 783.833 784.082 784.344 784.611 784.843 785.12 785.361 785.628 785.901 786.142 786.408 786.673 786.91 787.175 787.433 787.697 787.965 788.202 788.477 788.751 788.987 789.258 789.521 789.776 790.047 790.284 790.553 790.827 791.073 791.355 791.599 791.863 792.108 792.389 792.657 792.898 793.186 793.441 793.68 793.972 794.211 794.485 794.762 795.007 795.275 795.529 795.796 796.083 796.331 796.597 796.875 797.114 797.399 797.647 797.921 798.202 798.455 798.736 798.983 799.254 799.51 799.773 800.069 800.312 800.588 800.869 801.112 801.4 801.672 801.927 802.193 802.462 802.737 803.015 803.264 803.541 803.831 804.075 804.357 804.608 804.899 805.177 805.445 805.689 805.987 806.234 806.514 806.805 807.058 807.334 807.589 807.867 808.166 808.414 808.696 808.975 809.229 809.52 809.671 807.106 803.419 799.937 796.154 792.481 789.293 785.707 782.025 778.731 775.266 772.109 768.62 765.519 762.025 758.681 755.677 752.448 749.372 746.073 742.843 740.031 736.878 733.652 730.849 727.709 724.971 721.859 718.842 716.136 713.197 710.433 707.548 704.63 702.124 699.149 696.578 693.768 690.917 688.416 685.673 682.978 680.581 677.923 675.354 672.747 670.127 667.828 665.177 662.557 660.33 657.783 655.335 652.971 575.283 347.295 346.264 259.067 301.643 344.107 343.6 343.096 342.663 299.411 341.779 298.768 255.828 298.251 340.589 297.738 340.081 339.851 254.719 339.405 254.374 211.869 296.483 296.324 296.186 296.057 338.193 253.549 337.927 337.819 253.277 253.185 295.295 295.242 253.006 337.258 295.036 337.111 337.039 168.484 294.848 336.937 252.68 336.858 252.613 252.605 336.781 336.772 252.542 336.735 336.715 294.603 336.689 252.5 252.526 294.549 336.63 252.464 336.612 294.51 294.534 294.604 336.713 336.77 252.621 210.598 294.869 337.119 337.264 253.057 295.339 253.284 337.88 338.076 211.419 338.444 338.604 296.417 296.598 339.195 212.116 339.623 254.919 297.562 340.294 340.449 298.026 298.178 298.386 255.928 341.429 256.139 256.202 341.677 341.684 341.65 256.096 255.825 298.325 341.006 255.81 213.162 341.146 298.519 341.142 255.871 341.167
754.451 754.696 754.912 755.17 755.414 755.632 755.891 756.131 756.355 756.605 756.825 757.07 757.328 757.544 757.793 758.018 758.276 758.521 758.742 759.002 759.224 759.468 759.727 759.952 760.205 760.422 760.684 760.929 761.153 761.406 761.632 761.876 762.138 762.363 762.61 762.873 763.093 763.346 763.597 763.828 764.07 764.311 764.559 764.813 765.034 765.305 765.527 765.785 766.018 766.268 766.535 766.756 767.011 767.261 767.502 767.742 767.985 768.237 768.491 768.715 768.981 769.235 769.469 769.73 769.969 770.217 770.471 770.7 770.952 771.2 771.443 771.71 771.937 772.192 772.445 772.684 772.93 773.207 773.434 773.692 773.956 774.189 774.45 774.704 774.942 775.191 775.442 775.699 775.958 776.187 776.462 776.719 776.948 777.211 777.445 777.717 777.976 778.207 778.467 778.713 778.971 779.224 779.483 779.745 779.977 780.247 780.508 780.742 781.02 781.268 781.519 781.783 782.016 782.279 782.548 782.786 783.053 783.293 783.557 783.829 784.061 784.347 784.58 784.846 785.108 785.341 785.618 785.862 786.129 786.395 786.63 786.91 787.175 787.412 787.694 787.954 788.197 788.469 788.708 788.974 789.254 789.489 789.759 790.003 790.283 790.549 790.789 791.072 791.314 791.578 791.86 792.104 792.379 792.615 792.9 793.165 793.409 793.684 793.93 794.195 794.48 794.724 794.992 795.279 795.517 795.792 796.065 796.316 796.579 796.841 797.111 797.387 797.627 797.922 798.163 798.443 798.697 798.968 799.258 799.5 799.776 800.048 800.31 800.571 800.835 801.109 801.385 801.629 801.918 802.195 802.448 802.733 802.993 803.263 803.539 803.787 804.062 804.331 804.596 804.886 805.134 805.411 805.686 805.947 806.214 806.515 806.762 807.043 807.33 807.583 807.868 808.144 808.403 808.674 808.947 809.227 809.509 809.693 806.875 803.15 799.881 796.136 792.846 789.063 785.478 782.323 778.8 775.504 772.068 768.738 765.361 761.972 759.001 755.579 752.291 749.383 745.941 742.906 739.869 736.69 733.918 730.812 727.662 724.905 721.836 719.093 716.109 713.072 710.489 707.348 704.802 701.922 699.115 696.636 693.708 691.162 688.384 685.648 683.252 680.42 677.764 675.402 672.629 670.084 667.722 665.105 662.822 660.3 657.668 655.484 652.979 613.139 347.594 303.208 345.815 345.041 301.444 215.009 343.422 257.257 299.74 342.138 256.355 298.821 341.206 298.296 255.48 297.832 340.146 297.44 297.248 254.602 296.9 339.104 338.93 254.092 338.61 253.838 338.312 338.168 211.307 337.919 337.819 337.74 211.057 337.594 295.335 295.28 295.217 295.176 295.142 337.289 295.1 295.083 337.221 295.05 295.082 252.871 252.868 337.16 337.141 294.977 252.815 337.093 294.955 337.052 337.045 252.784 337.024 294.867 210.605 294.914 337.069 252.811 337.177 252.937 337.313 295.223 337.557 253.284 337.814 337.949 295.827 338.289 169.22 338.629 338.807 296.595 211.923 339.277 297 339.697 339.92 212.533 297.716 340.387 212.839 255.512 340.82 298.298 255.747 341.03 298.399 341.032 340.897 340.731 212.905 340.624 212.928 298.132 340.764 255.58 340.811 340.83 298.207 212.973 298.225 340.884
754.441 754.666 754.911 755.142 755.382 755.631 755.854 756.109 756.354 756.577 756.818 757.048 757.301 757.549 757.767 758.014 758.268 758.491 758.744 758.971 759.222 759.448 759.702 759.952 760.17 760.42 760.674 760.908 761.151 761.378 761.629 761.884 762.111 762.364 762.609 762.846 763.097 763.324 763.573 763.82 764.046 764.305 764.537 764.78 765.048 765.271 765.535 765.765 766.013 766.268 766.488 766.758 766.982 767.235 767.499 767.716 767.981 768.234 768.459 768.729 768.954 769.209 769.462 769.692 769.949 770.21 770.448 770.691 770.93 771.192 771.45 771.675 771.931 772.186 772.423 772.678 772.944 773.172 773.431 773.684 773.934 774.189 774.44 774.682 774.937 775.17 775.434 775.672 775.922 776.202 776.43 776.691 776.952 777.182 777.442 777.71 777.947 778.208 778.438 778.712 778.949 779.216 779.477 779.709 779.97 780.222 780.485 780.745 780.975 781.242 781.515 781.753 782.01 782.25 782.528 782.788 783.024 783.283 783.551 783.789 784.067 784.3 784.582 784.837 785.081 785.358 785.594 785.858 786.119 786.363 786.629 786.88 787.14 787.411 787.653 787.93 788.196 788.438 788.7 788.95 789.225 789.494 789.731 789.999 790.275 790.518 790.792 791.039 791.311 791.557 791.833 792.104 792.341 792.613 792.889 793.142 793.406 793.653 793.926 794.204 794.45 794.725 794.991 795.248 795.521 795.769 796.039 796.308 796.554 796.835 797.087 797.351 797.642 797.884 798.172 798.421 798.691 798.968 799.208 799.501 799.744 800.02 800.306 800.543 800.831 801.106 801.351 801.645 801.889 802.166 802.441 802.691 802.971 803.255 803.514 803.778 804.038 804.323 804.603 804.848 805.127 805.405 805.662 805.94 806.229 806.477 806.759 807.035 807.306 807.583 807.857 808.12 808.398 808.651 808.939 809.197 809.47 809.607 807.124 803.346 799.615 796.33 792.68 788.947 785.675 782.103 778.987 775.308 772.161 768.636 765.235 762.239 758.894 755.702 752.385 749.15 746.304 743.038 739.727 736.871 733.801 730.974 727.724 724.708 721.987 719.033 716.009 713.338 710.248 707.686 704.612 701.85 699.229 696.288 693.794 691.035 688.329 685.817 683.108 680.571 677.955 675.263 672.869 670.168 667.58 665.253 662.75 660.385 657.802 655.287 653.098 538.076 304.419 346.947 346.139 302.307 344.868 344.341 257.829 300.38 342.919 342.474 342.111 341.831 256.16 341.263 340.961 212.935 340.473 255.199 212.491 339.789 339.57 212.103 339.197 296.639 211.794 338.717 296.266 253.832 295.988 338.157 295.79 295.753 337.927 253.381 337.793 295.51 253.281 295.488 337.669 253.248 337.61 337.6 253.184 337.588 295.375 295.397 337.585 337.569 253.161 337.531 337.52 210.959 337.475 337.458 337.447 337.436 253.05 295.219 337.409 295.257 337.477 337.528 168.775 337.636 253.283 253.398 337.98 295.851 295.969 338.37 338.517 253.986 338.808 338.982 254.339 339.288 296.996 254.705 339.746 254.908 212.514 340.162 255.214 255.329 340.552 340.639 298.089 340.703 212.958 255.453 340.506 297.88 255.307 340.424 340.451 255.383 340.568 212.851 255.428 298.005 340.577 255.402 255.405 340.517 298.001 255.47
754.412 754.66 754.907 755.139 755.378 755.602 755.849 756.101 756.324 756.573 756.815 757.035 757.297 757.519 757.763 758.008 758.23 758.485 758.713 758.967 759.192 759.44 759.696 759.922 760.166 760.418 760.635 760.901 761.148 761.374 761.622 761.844 762.104 762.354 762.576 762.842 763.063 763.298 763.569 763.79 764.043 764.3 764.534 764.774 765.009 765.267 765.495 765.758 766.01 766.234 766.486 766.724 766.971 767.228 767.458 767.714 767.974 768.203 768.452 768.689 768.95 769.206 769.431 769.685 769.945 770.17 770.441 770.687 770.923 771.19 771.418 771.672 771.924 772.18 772.42 772.674 772.904 773.168 773.425 773.653 773.91 774.157 774.399 774.675 774.907 775.162 775.431 775.665 775.919 776.154 776.427 776.687 776.916 777.18 777.435 777.67 777.943 778.197 778.434 778.709 778.942 779.214 779.442 779.707 779.963 780.217 780.478 780.712 780.971 781.234 781.473 781.742 782.008 782.246 782.524 782.752 783.02 783.281 783.519 783.782 784.032 784.296 784.567 784.806 785.074 785.316 785.587 785.854 786.088 786.356 786.625 786.877 787.136 787.379 787.647 787.921 788.163 788.434 788.697 788.936 789.22 789.461 789.727 789.992 790.234 790.511 790.759 791.035 791.278 791.548 791.827 792.072 792.337 792.61 792.846 793.135 793.404 793.649 793.919 794.16 794.443 794.714 794.955 795.244 795.484 795.74 796.035 796.274 796.55 796.829 797.084 797.344 797.599 797.88 798.128 798.414 798.688 798.931 799.205 799.464 799.733 800.012 800.263 800.54 800.823 801.072 801.343 801.601 801.885 802.163 802.407 802.684 802.967 803.211 803.506 803.774 804.031 804.32 804.568 804.845 805.119 805.398 805.659 805.936 806.186 806.473 806.752 807 807.28 807.549 807.813 808.112 808.365 808.642 808.935 809.19 809.466 809.677 806.943 803.187 799.901 796.154 792.564 789.293 785.523 782.04 778.839 775.155 772.056 768.472 765.492 762.078 758.788 755.562 752.284 749.362 746.163 742.941 740.044 736.815 733.652 730.842 727.589 724.943 721.855 718.89 716.198 713.245 710.47 707.559 704.607 702.021 699.143 696.569 693.709 690.914 688.493 685.73 682.989 680.443 677.838 675.421 672.775 670.098 667.745 665.14 662.628 660.371 657.696 655.449 652.993 538.101 348.584 347.293 346.568 302.593 345.276 301.594 215.112 300.708 343.256 257.143 342.482 299.37 299.117 341.592 341.299 255.792 298.189 340.546 255.235 297.555 297.43 254.802 339.488 339.313 296.726 338.974 296.496 296.367 338.558 296.111 169.158 338.269 338.197 211.351 338.062 338.03 253.527 338.03 338.026 253.511 295.725 337.973 211.215 337.973 295.713 337.992 337.999 337.977 253.467 295.718 337.921 211.158 337.874 337.866 337.859 295.59 253.404 295.562 337.77 295.54 337.82 337.881 211.2 295.76 253.567 253.632 338.306 296.159 253.93 338.701 338.841 296.588 339.088 296.821 296.969 339.561 254.771 297.328 339.917 297.516 255.085 340.214 297.758 297.816 340.372 255.293 297.807 297.796 340.277 212.667 340.28 340.303 255.241 340.335 340.374 170.177 340.379 255.29 255.265 340.347 297.794 255.253 340.326 297.781 255.286 340.437
754.418 754.657 754.879 755.137 755.352 755.601 755.823 756.064 756.322 756.543 756.794 757.038 757.255 757.512 757.758 757.986 758.224 758.462 758.706 758.939 759.192 759.436 759.659 759.913 760.143 760.389 760.651 760.87 761.12 761.371 761.599 761.84 762.08 762.327 762.578 762.798 763.06 763.314 763.533 763.795 764.033 764.277 764.527 764.752 765.001 765.245 765.492 765.751 765.981 766.234 766.458 766.723 766.975 767.2 767.467 767.706 767.951 768.203 768.43 768.683 768.949 769.171 769.428 769.659 769.909 770.185 770.409 770.666 770.919 771.143 771.41 771.645 771.903 772.158 772.412 772.641 772.896 773.145 773.4 773.658 773.886 774.152 774.416 774.643 774.904 775.158 775.404 775.665 775.894 776.152 776.417 776.642 776.914 777.15 777.411 777.678 777.914 778.17 778.433 778.68 778.937 779.166 779.449 779.679 779.942 780.21 780.445 780.704 780.949 781.206 781.482 781.722 781.978 782.245 782.476 782.751 782.989 783.254 783.516 783.755 784.026 784.267 784.546 784.808 785.045 785.306 785.583 785.823 786.094 786.353 786.595 786.875 787.108 787.378 787.62 787.881 788.161 788.402 788.674 788.939 789.174 789.453 789.721 789.969 790.227 790.485 790.751 791.004 791.278 791.544 791.786 792.061 792.311 792.579 792.864 793.101 793.373 793.646 793.894 794.156 794.416 794.685 794.957 795.197 795.481 795.758 795.996 796.28 796.539 796.805 797.076 797.321 797.591 797.856 798.124 798.407 798.657 798.932 799.174 799.463 799.737 799.982 800.272 800.532 800.799 801.072 801.319 801.594 801.883 802.125 802.404 802.656 802.928 803.227 803.472 803.751 804.026 804.27 804.561 804.816 805.097 805.374 805.651 805.899 806.177 806.448 806.725 807.006 807.254 807.543 807.831 808.078 808.362 808.638 808.906 809.19 809.439 809.555 806.867 803.613 799.718 796.356 792.686 788.966 785.707 782.21 778.645 775.337 771.916 768.896 765.212 762.232 758.854 755.459 752.501 749.279 746.25 743.11 739.754 736.878 733.823 730.663 727.969 724.771 722.029 719.014 716.056 713.371 710.361 707.711 704.664 701.836 699.284 696.513 693.585 691.073 688.266 685.599 683.138 680.302 677.969 675.276 672.894 670.333 667.612 665.299 662.7 660.189 657.978 655.375 652.901 575.742 349.103 260.894 346.915 346.216 345.6 301.908 344.522 301.049 343.64 300.317 257.078 342.519 342.218 256.486 256.236 341.365 298.462 340.864 340.635 255.33 340.21 339.998 297.316 297.175 339.402 254.425 339.091 254.24 296.461 338.702 338.625 296.222 253.857 296.107 296.072 338.35 338.341 253.748 338.348 338.349 296.078 253.776 338.398 253.815 338.416 296.126 253.815 338.39 338.368 296.061 296.009 338.304 211.409 338.274 253.689 253.679 338.189 338.148 253.594 295.848 295.902 338.219 338.276 211.475 338.441 296.23 296.324 254.058 338.885 339.014 296.743 339.269 212.121 339.521 297.202 254.812 254.893 339.945 255.028 297.604 297.65 127.577 340.21 297.692 255.174 255.163 340.19 255.133 340.171 297.658 212.618 340.214 340.228 297.701 255.181 340.244 255.183 340.222 212.638 212.627 297.667 255.14 255.132 297.668 340.213 340.263
754.388 754.619 754.88 755.099 755.342 755.598 755.813 756.062 756.303 756.542 756.775 757.007 757.258 757.498 757.723 757.975 758.225 758.449 758.71 758.924 759.187 759.407 759.656 759.901 760.142 760.381 760.611 760.858 761.107 761.335 761.59 761.841 762.06 762.33 762.567 762.801 763.049 763.274 763.526 763.784 764.011 764.265 764.487 764.749 765.002 765.226 765.491 765.713 765.965 766.225 766.461 766.711 766.938 767.197 767.45 767.683 767.932 768.163 768.41 768.681 768.909 769.161 769.425 769.656 769.91 770.164 770.396 770.662 770.888 771.148 771.399 771.63 771.899 772.145 772.371 772.641 772.897 773.126 773.396 773.647 773.882 774.144 774.374 774.631 774.901 775.127 775.388 775.623 775.893 776.149 776.381 776.645 776.902 777.13 777.401 777.64 777.902 778.172 778.402 778.659 778.906 779.171 779.407 779.663 779.938 780.173 780.431 780.707 780.937 781.203 781.465 781.707 781.96 782.213 782.473 782.739 782.97 783.254 783.513 783.752 784.023 784.262 784.532 784.769 785.041 785.307 785.542 785.807 786.062 786.312 786.595 786.834 787.098 787.375 787.609 787.879 788.141 788.4 788.653 788.905 789.178 789.439 789.683 789.957 790.228 790.471 790.755 790.987 791.273 791.512 791.783 792.049 792.31 792.571 792.82 793.089 793.36 793.607 793.883 794.156 794.395 794.688 794.946 795.2 795.469 795.714 795.988 796.268 796.514 796.791 797.032 797.317 797.592 797.835 798.123 798.365 798.638 798.922 799.178 799.451 799.697 799.979 800.254 800.507 800.778 801.029 801.298 801.592 801.841 802.114 802.401 802.652 802.929 803.205 803.457 803.747 803.992 804.275 804.548 804.799 805.092 805.36 805.606 805.9 806.178 806.427 806.721 806.994 807.249 807.534 807.785 808.064 808.359 808.604 808.888 809.144 809.438 809.579 807.184 803.349 799.674 796.433 792.607 789.285 785.664 781.966 778.856 775.405 772.128 768.636 765.552 762.239 758.723 755.737 752.485 749.046 746.201 742.957 739.778 736.863 733.851 730.865 727.822 724.735 722.072 718.831 715.914 713.238 710.221 707.594 704.651 702.083 699.164 696.333 693.852 691.08 688.439 685.86 682.972 680.563 677.914 675.149 672.848 670.209 667.663 665.164 662.75 660.362 657.798 655.363 653.108 575.809 349.594 348.224 347.237 346.597 216.157 345.398 301.786 301.331 343.986 343.572 300.3 300.005 342.553 256.699 299.195 298.959 298.76 341.176 298.338 340.728 297.926 297.803 255.078 339.877 339.7 297.061 339.375 212 339.071 338.981 338.899 254.122 338.745 338.679 254.021 338.684 211.698 338.711 338.731 296.411 254.07 338.805 296.471 296.483 338.856 211.76 338.836 338.811 296.413 254.081 338.738 296.359 338.674 296.326 211.653 296.249 253.901 211.591 338.47 296.16 253.868 253.899 338.625 296.375 338.805 254.175 211.869 339.085 339.202 254.497 339.438 254.646 297.176 297.242 254.834 212.412 339.94 255.01 297.556 340.084 297.578 340.11 297.609 255.085 255.081 255.074 297.587 255.074 340.106 297.611 340.15 340.165 297.638 255.119 297.645 340.157 170.061 340.1 297.57 340.08 297.576 255.082 255.097 340.143 255.113 255.13
754.384 754.633 754.85 755.091 755.338 755.554 755.819 756.036 756.283 756.535 756.747 757.006 757.229 757.471 757.731 757.956 758.197 758.449 758.665 758.927 759.145 759.412 759.651 759.88 760.135 760.358 760.603 760.835 761.081 761.325 761.567 761.812 762.066 762.286 762.547 762.793 763.024 763.273 763.5 763.762 764.009 764.235 764.486 764.747 764.968 765.224 765.455 765.718 765.941 766.203 766.454 766.679 766.93 767.175 767.426 767.673 767.908 768.161 768.427 768.65 768.907 769.157 769.399 769.656 769.885 770.137 770.395 770.618 770.885 771.118 771.375 771.638 771.87 772.114 772.37 772.612 772.863 773.124 773.358 773.624 773.881 774.114 774.367 774.607 774.872 775.132 775.361 775.619 775.885 776.119 776.383 776.637 776.876 777.146 777.378 777.637 777.892 778.127 778.404 778.637 778.903 779.141 779.404 779.672 779.909 780.174 780.431 780.678 780.941 781.18 781.44 781.699 781.936 782.207 782.45 782.705 782.985 783.218 783.486 783.752 784 784.262 784.498 784.762 785.039 785.28 785.539 785.78 786.057 786.328 786.562 786.825 787.093 787.327 787.615 787.85 788.119 788.393 788.623 788.904 789.146 789.409 789.692 789.936 790.198 790.471 790.706 790.991 791.227 791.517 791.777 792.026 792.303 792.545 792.812 793.064 793.33 793.596 793.859 794.125 794.401 794.64 794.924 795.191 795.442 795.713 795.959 796.244 796.513 796.758 797.031 797.315 797.556 797.833 798.085 798.37 798.613 798.897 799.17 799.415 799.688 799.954 800.227 800.496 800.751 801.027 801.315 801.558 801.838 802.109 802.373 802.652 802.901 803.176 803.456 803.699 803.989 804.243 804.522 804.808 805.061 805.326 805.605 805.868 806.141 806.425 806.679 806.969 807.248 807.502 807.777 808.039 808.327 808.61 808.859 809.14 809.43 809.563 806.925 803.255 799.824 795.978 792.72 789.121 785.593 782.379 778.624 775.493 771.958 768.824 765.398 761.935 758.894 755.531 752.304 749.216 745.969 743.052 739.897 736.778 733.951 730.75 727.909 724.954 721.732 719.069 716.046 713.068 710.308 707.424 704.848 701.987 699.013 696.458 693.719 691.198 688.329 685.543 683.151 680.495 677.806 675.476 672.632 670.328 667.714 665.084 662.885 660.219 657.943 655.494 652.882 613.345 306.52 348.694 347.744 346.926 346.365 302.526 345.196 258.613 215.277 343.941 343.526 257.422 300.009 342.587 299.536 342.05 341.789 213.488 298.646 255.771 255.622 340.588 297.847 297.662 339.98 339.822 254.736 339.484 212.12 254.447 296.791 254.334 339.046 296.661 339.054 254.268 339.091 296.738 296.724 339.164 254.402 296.812 296.825 339.28 254.468 339.251 339.22 254.385 339.159 339.128 169.556 339.067 254.26 254.258 338.962 296.545 211.814 338.859 296.463 296.458 338.832 211.808 338.983 339.072 254.38 339.258 339.338 254.566 297.031 212.195 254.691 339.671 254.815 297.335 339.901 297.468 297.493 255.002 297.506 212.508 340.028 340.035 255.027 340.041 340.047 297.545 340.059 297.558 255.063 340.103 297.595 297.587 340.093 340.09 297.573 340.066 297.551 212.534 340.049 255.034 255.048 340.081 297.586 255.081 297.607 340.133
754.354 754.599 754.858 755.073 755.32 755.562 755.796 756.033 756.261 756.507 756.755 756.972 757.23 757.477 757.703 757.956 758.178 758.423 758.673 758.907 759.152 759.37 759.629 759.857 760.107 760.365 760.585 760.83 761.085 761.307 761.569 761.812 762.04 762.294 762.511 762.774 763.001 763.247 763.5 763.728 763.99 764.239 764.463 764.714 764.977 765.205 765.464 765.691 765.948 766.169 766.435 766.683 766.911 767.16 767.406 767.645 767.911 768.139 768.39 768.657 768.88 769.138 769.368 769.634 769.872 770.117 770.369 770.627 770.851 771.126 771.373 771.609 771.872 772.118 772.347 772.62 772.872 773.104 773.36 773.59 773.858 774.115 774.348 774.602 774.843 775.089 775.368 775.595 775.857 776.121 776.363 776.617 776.852 777.112 777.38 777.617 777.873 778.136 778.363 778.641 778.868 779.149 779.38 779.642 779.91 780.146 780.404 780.648 780.917 781.164 781.418 781.68 781.943 782.175 782.455 782.709 782.952 783.227 783.453 783.729 783.984 784.241 784.504 784.741 785.003 785.26 785.512 785.789 786.024 786.29 786.571 786.805 787.073 787.336 787.59 787.848 788.095 788.362 788.631 788.867 789.147 789.415 789.661 789.936 790.177 790.444 790.715 790.969 791.235 791.472 791.753 792.001 792.273 792.554 792.792 793.058 793.335 793.576 793.862 794.126 794.373 794.649 794.885 795.171 795.417 795.685 795.96 796.208 796.492 796.762 797.006 797.279 797.565 797.812 798.094 798.342 798.621 798.86 799.15 799.42 799.668 799.938 800.205 800.466 800.755 801.003 801.276 801.566 801.809 802.089 802.339 802.628 802.887 803.154 803.428 803.708 803.952 804.252 804.52 804.777 805.062 805.331 805.58 805.877 806.15 806.404 806.682 806.931 807.223 807.503 807.756 808.033 808.295 808.563 808.867 809.114 809.398 809.577 806.99 803.315 799.947 796.247 792.478 789.178 785.65 782.054 778.968 775.235 772.219 768.514 765.505 762.115 758.681 755.684 752.449 749.402 746.077 743.059 739.966 736.828 733.681 730.947 727.668 724.723 721.929 718.794 716.239 713.15 710.315 707.487 704.618 702.048 699.239 696.507 693.841 690.948 688.504 685.767 682.903 680.538 677.849 675.234 672.724 670.199 667.8 665.228 662.656 660.421 657.788 655.296 653.023 650.497 388.225 305.788 304.666 347.429 303.372 216.369 345.574 345.157 258.531 344.246 343.899 300.587 343.186 342.918 256.948 342.375 299.37 256.369 298.894 255.977 341.1 298.267 298.06 255.328 340.274 297.577 254.953 254.837 297.181 339.561 339.487 296.985 254.526 339.365 296.978 254.589 297.076 339.516 339.542 297.152 339.617 212.321 297.213 339.695 169.808 339.619 254.673 339.544 339.515 297.046 212.147 339.416 296.948 254.543 339.31 212.044 339.246 339.206 254.384 339.14 296.782 254.45 296.921 297.011 297.061 339.536 297.128 254.707 339.652 297.23 254.807 297.329 297.41 297.443 297.461 339.964 169.985 339.983 339.994 255.001 340.005 255.004 297.507 297.512 340.022 212.519 340.038 255.034 255.043 340.058 340.064 297.559 340.072 297.561 212.542 297.556 212.539 255.041 340.047 297.534 340.039 297.548 340.071 212.558 297.6 297.617
754.348 754.599 754.813 755.074 755.291 755.537 755.792 756.014 756.256 756.48 756.724 756.986 757.204 757.451 757.696 757.919 758.174 758.42 758.645 758.899 759.127 759.386 759.607 759.854 760.098 760.322 760.587 760.809 761.052 761.305 761.532 761.79 762.039 762.265 762.51 762.746 763.001 763.253 763.474 763.724 763.983 764.209 764.465 764.691 764.949 765.201 765.438 765.692 765.913 766.167 766.425 766.662 766.909 767.14 767.399 767.653 767.883 768.14 768.389 768.629 768.884 769.109 769.365 769.627 769.848 770.111 770.346 770.593 770.865 771.091 771.348 771.601 771.849 772.088 772.349 772.576 772.843 773.101 773.337 773.585 773.832 774.087 774.349 774.58 774.835 775.105 775.331 775.601 775.847 776.098 776.356 776.588 776.852 777.108 777.341 777.607 777.848 778.105 778.38 778.609 778.882 779.114 779.377 779.634 779.887 780.146 780.381 780.641 780.916 781.143 781.411 781.652 781.907 782.19 782.422 782.687 782.947 783.179 783.45 783.722 783.963 784.234 784.48 784.732 784.98 785.252 785.519 785.752 786.018 786.29 786.523 786.807 787.042 787.309 787.586 787.827 788.09 788.333 788.598 788.882 789.119 789.387 789.654 789.896 790.173 790.441 790.684 790.96 791.208 791.489 791.729 791.998 792.263 792.506 792.794 793.036 793.3 793.574 793.821 794.101 794.372 794.618 794.884 795.14 795.417 795.69 795.931 796.203 796.484 796.73 797.009 797.254 797.534 797.809 798.066 798.342 798.582 798.858 799.139 799.396 799.665 799.916 800.198 800.475 800.724 801.004 801.275 801.536 801.813 802.057 802.336 802.621 802.862 803.148 803.403 803.672 803.967 804.214 804.493 804.768 805.038 805.298 805.582 805.828 806.119 806.4 806.656 806.927 807.195 807.473 807.758 808.009 808.287 808.581 808.827 809.12 809.388 809.555 806.883 803.525 799.733 796.096 792.81 789.106 785.783 782.259 778.533 775.461 771.83 768.786 765.343 762.024 758.78 755.49 752.541 749.292 745.905 743.122 739.867 736.972 733.938 730.587 727.871 724.8 721.807 719.165 716.104 713.056 710.373 707.397 704.7 701.976 699.316 696.423 693.611 691.168 688.416 685.61 683.237 680.364 678.002 675.343 672.607 670.251 667.704 665.362 662.831 660.133 657.912 655.406 652.94 650.719 462.844 349.922 348.835 304.481 260.433 346.556 302.7 345.472 258.815 258.472 344.25 343.924 343.567 300.34 342.974 256.978 342.388 342.131 256.401 341.637 341.383 341.139 298.316 340.741 212.853 340.413 340.228 255.049 297.442 254.871 339.8 254.81 297.21 254.788 339.766 297.361 212.442 339.935 339.987 297.545 297.574 340.094 212.561 340.074 340.025 254.998 339.944 297.43 297.414 339.84 339.81 254.823 339.734 254.767 212.267 339.628 297.143 254.66 339.52 212.18 339.495 297.094 254.684 339.622 297.206 212.306 297.265 339.775 254.855 297.368 339.889 297.426 339.923 297.442 212.466 339.955 339.966 339.974 339.977 254.985 254.986 339.988 339.998 255.007 255.019 340.04 297.547 340.058 297.556 297.564 297.569 340.079 212.548 255.056 340.072 297.559 340.062 297.55 170.032 340.06 255.042 212.536 297.569 297.591 340.124 255.107
754.349 754.569 754.81 755.039 755.273 755.538 755.755 756.001 756.253 756.475 756.725 756.967 757.194 757.432 757.671 757.917 758.165 758.383 758.646 758.861 759.12 759.346 759.595 759.85 760.075 760.319 760.571 760.806 761.041 761.282 761.529 761.779 762.001 762.258 762.508 762.73 762.996 763.233 763.472 763.725 763.947 764.197 764.454 764.681 764.936 765.165 765.422 765.651 765.913 766.164 766.389 766.658 766.906 767.135 767.387 767.616 767.871 768.131 768.359 768.609 768.847 769.089 769.364 769.588 769.844 770.104 770.327 770.594 770.825 771.081 771.345 771.578 771.83 772.076 772.339 772.579 772.83 773.064 773.327 773.586 773.812 774.09 774.333 774.577 774.836 775.063 775.324 775.59 775.823 776.086 776.314 776.571 776.847 777.077 777.338 777.595 777.847 778.098 778.338 778.597 778.841 779.103 779.374 779.61 779.867 780.105 780.36 780.64 780.875 781.138 781.399 781.636 781.907 782.169 782.408 782.683 782.916 783.184 783.449 783.681 783.958 784.196 784.46 784.736 784.969 785.238 785.477 785.754 786.019 786.257 786.52 786.768 787.023 787.31 787.545 787.813 788.087 788.328 788.599 788.862 789.109 789.367 789.627 789.893 790.163 790.399 790.685 790.919 791.2 791.445 791.716 791.993 792.238 792.503 792.776 793.032 793.287 793.549 793.818 794.089 794.33 794.61 794.881 795.123 795.412 795.669 795.929 796.204 796.445 796.718 796.997 797.243 797.52 797.77 798.049 798.297 798.583 798.855 799.1 799.392 799.662 799.911 800.185 800.434 800.712 800.994 801.242 801.514 801.773 802.035 802.334 802.578 802.857 803.139 803.382 803.672 803.923 804.203 804.49 804.743 805.017 805.285 805.57 805.831 806.105 806.36 806.646 806.928 807.173 807.476 807.74 808.005 808.287 808.535 808.818 809.108 809.362 809.518 807.264 803.539 799.582 796.315 792.641 789.063 785.585 782.153 778.899 775.419 772.17 768.723 765.18 762.132 758.841 755.817 752.605 749.121 746.214 742.997 739.829 736.978 733.752 730.651 727.856 724.667 721.992 718.938 715.941 713.338 710.258 707.64 704.756 701.77 699.273 696.409 693.89 690.991 688.241 685.788 683.108 680.596 678.04 675.182 672.858 670.238 667.58 665.259 662.668 660.179 657.86 655.454 653.046 650.602 500.236 306.834 262.049 304.966 347.716 347.116 303 345.8 345.396 344.992 301.548 215.142 257.912 343.555 300.364 342.948 342.694 256.817 342.165 341.937 213.526 298.737 341.209 298.398 298.264 340.694 340.512 340.356 340.255 170.077 255.067 340.063 212.513 340.079 297.634 297.68 340.296 340.349 212.77 212.812 340.511 297.952 340.485 297.885 297.833 297.808 340.301 212.664 212.618 340.134 297.577 340.048 340.007 212.482 339.905 254.899 254.858 339.77 297.244 212.274 339.633 254.737 254.753 297.24 254.805 297.31 297.34 254.882 212.428 339.916 254.945 297.44 297.442 212.463 339.944 339.956 339.966 254.982 297.487 297.502 340.011 212.514 255.023 340.049 297.555 297.564 212.547 340.078 340.081 255.066 340.086 297.573 340.085 340.086 297.574 297.576 340.092 340.097 297.586 340.098 212.558 340.091 340.094 255.084 212.582 340.142
754.321 754.563 754.789 755.033 755.287 755.504 755.752 755.994 756.232 756.475 756.715 756.946 757.19 757.412 757.664 757.891 758.13 758.397 758.615 758.875 759.093 759.345 759.589 759.813 760.073 760.316 760.542 760.804 761.019 761.275 761.524 761.745 761.994 762.234 762.486 762.734 762.953 763.208 763.469 763.695 763.941 764.17 764.435 764.683 764.909 765.156 765.395 765.647 765.888 766.134 766.391 766.614 766.878 767.132 767.364 767.613 767.862 768.108 768.361 768.588 768.839 769.105 769.328 769.593 769.843 770.074 770.343 770.564 770.825 771.077 771.306 771.568 771.805 772.048 772.318 772.57 772.802 773.055 773.304 773.556 773.818 774.045 774.303 774.575 774.802 775.063 775.297 775.567 775.822 776.054 776.313 776.575 776.803 777.083 777.333 777.573 777.839 778.073 778.33 778.573 778.841 779.099 779.348 779.6 779.842 780.103 780.377 780.608 780.873 781.134 781.375 781.645 781.881 782.142 782.407 782.638 782.913 783.153 783.411 783.686 783.929 784.197 784.431 784.707 784.973 785.208 785.473 785.746 785.989 786.252 786.497 786.761 787.037 787.273 787.542 787.805 788.063 788.328 788.589 788.839 789.104 789.345 789.619 789.865 790.125 790.415 790.652 790.934 791.172 791.445 791.709 791.953 792.236 792.5 792.745 793.03 793.264 793.541 793.812 794.052 794.323 794.584 794.857 795.127 795.365 795.642 795.925 796.172 796.439 796.688 796.975 797.245 797.491 797.759 798.02 798.293 798.556 798.823 799.103 799.345 799.631 799.907 800.16 800.431 800.701 800.969 801.244 801.491 801.764 802.053 802.295 802.583 802.856 803.107 803.4 803.641 803.923 804.198 804.448 804.732 804.99 805.254 805.548 805.822 806.075 806.349 806.621 806.895 807.18 807.427 807.708 808.003 808.25 808.534 808.789 809.083 809.36 809.508 807.064 803.27 799.999 796.024 792.506 789.161 785.478 782.285 778.8 775.536 771.971 768.582 765.331 762.065 758.965 755.645 752.199 749.331 746.052 742.855 739.936 736.694 733.877 730.799 727.687 725.014 721.843 719.102 716.186 713.104 710.408 707.46 704.909 701.92 699.07 696.558 693.763 690.903 688.392 685.687 683.184 680.506 677.74 675.392 672.733 670.167 667.657 665.108 662.617 660.243 657.758 655.504 652.97 650.713 574.784 351.191 350.014 348.971 348.236 347.534 303.43 216.403 345.724 345.355 301.876 344.563 344.23 257.944 343.522 343.242 214.363 257.036 256.845 256.655 341.973 299.006 213.437 341.327 341.151 255.76 255.621 298.073 298.014 340.51 255.329 297.826 340.409 340.49 255.431 340.636 340.703 298.18 340.814 340.866 255.706 340.845 255.583 212.961 340.689 255.49 212.866 340.514 297.844 255.236 297.717 212.626 297.648 340.111 340.071 297.52 339.968 212.437 297.338 339.756 254.821 339.768 254.834 254.843 212.389 297.361 297.387 212.448 339.933 212.461 339.944 339.95 297.461 297.469 254.985 212.494 340.008 212.514 255.024 340.044 340.054 297.554 340.073 297.574 297.579 340.095 340.1 212.563 340.108 297.599 255.087 340.121 255.09 255.097 340.13 297.614 297.617 340.139 297.623 255.102 340.131 340.128 255.091 340.127 340.14 212.601
754.304 754.55 754.773 755.023 755.271 755.493 755.753 755.965 756.216 756.458 756.68 756.926 757.162 757.402 757.654 757.872 758.129 758.377 758.604 758.859 759.076 759.344 759.579 759.812 760.057 760.281 760.535 760.763 761.011 761.264 761.484 761.744 761.995 762.217 762.466 762.724 762.952 763.2 763.431 763.68 763.94 764.162 764.416 764.663 764.906 765.156 765.376 765.645 765.872 766.121 766.384 766.612 766.86 767.09 767.357 767.611 767.835 768.092 768.341 768.571 768.837 769.086 769.317 769.585 769.805 770.067 770.321 770.548 770.803 771.048 771.305 771.559 771.784 772.04 772.299 772.532 772.8 773.054 773.284 773.54 773.81 774.043 774.296 774.533 774.793 775.061 775.289 775.544 775.805 776.032 776.312 776.565 776.801 777.065 777.291 777.564 777.8 778.055 778.329 778.567 778.819 779.07 779.327 779.591 779.821 780.103 780.355 780.597 780.865 781.092 781.368 781.626 781.864 782.122 782.378 782.635 782.904 783.136 783.4 783.679 783.915 784.19 784.422 784.69 784.949 785.207 785.471 785.708 785.97 786.237 786.479 786.751 787.02 787.261 787.543 787.774 788.046 788.309 788.551 788.818 789.074 789.335 789.608 789.845 790.124 790.394 790.64 790.916 791.153 791.444 791.699 791.952 792.218 792.462 792.738 792.986 793.255 793.53 793.769 794.051 794.323 794.565 794.836 795.116 795.364 795.633 795.884 796.155 796.438 796.679 796.955 797.224 797.488 797.76 797.999 798.292 798.538 798.809 799.094 799.343 799.612 799.863 800.152 800.428 800.672 800.952 801.223 801.472 801.762 802.032 802.284 802.576 802.815 803.099 803.376 803.622 803.9 804.167 804.446 804.722 804.967 805.246 805.527 805.781 806.072 806.349 806.599 806.878 807.171 807.425 807.7 807.958 808.241 808.533 808.781 809.058 809.342 809.569 806.858 803.195 799.804 796.052 792.873 789.063 785.813 782.323 778.604 775.419 772.068 768.764 765.397 761.984 759.041 755.461 752.291 749.276 745.956 743.188 739.829 736.727 733.901 730.849 727.856 724.862 721.774 719.129 716.136 713.021 710.398 707.362 704.837 701.942 699.149 696.409 693.624 691.138 688.416 685.673 683.205 680.452 677.753 675.354 672.576 670.314 667.673 665.136 662.831 660.3 657.889 655.455 652.928 650.758 648.215 352.084 219.099 305.85 348.745 217.496 303.829 346.553 302.815 345.72 345.288 172.494 258.416 344.194 343.876 343.488 300.295 300.087 342.678 342.404 256.64 256.457 341.77 341.606 341.426 298.629 255.833 340.96 298.271 213.045 298.202 340.757 340.816 340.907 340.993 298.41 341.111 255.889 213.259 255.949 298.57 341.145 341.068 341.013 213.095 340.905 213.018 212.927 340.612 297.944 255.312 255.288 340.319 212.68 297.687 297.626 255.067 340 297.435 254.904 339.884 297.407 297.421 254.93 169.977 339.943 339.947 254.965 297.463 339.965 297.473 297.48 339.989 255.002 340.023 340.042 255.045 255.057 297.576 255.075 340.115 255.096 212.581 297.613 340.142 255.11 255.116 297.642 297.641 340.16 297.641 255.125 340.172 340.172 297.653 170.085 297.655 297.656 340.175 340.174 255.133 297.657 340.179 340.18 297.658 340.197
754.283 754.523 754.781 755.004 755.243 755.493 755.708 755.964 756.187 756.434 756.678 756.901 757.158 757.403 757.623 757.886 758.128 758.352 758.598 758.83 759.082 759.3 759.56 759.803 760.033 760.272 760.513 760.76 761.01 761.234 761.483 761.742 761.962 762.215 762.44 762.701 762.951 763.176 763.423 763.657 763.897 764.167 764.389 764.641 764.899 765.126 765.393 765.614 765.87 766.117 766.358 766.612 766.836 767.089 767.347 767.567 767.832 768.063 768.318 768.579 768.809 769.059 769.316 769.557 769.797 770.044 770.297 770.553 770.779 771.042 771.298 771.526 771.798 772.045 772.272 772.528 772.792 773.024 773.286 773.517 773.781 774.039 774.273 774.53 774.783 775.016 775.291 775.522 775.779 776.049 776.275 776.542 776.8 777.035 777.29 777.535 777.799 778.053 778.29 778.556 778.795 779.064 779.304 779.557 779.835 780.067 780.33 780.589 780.842 781.09 781.358 781.604 781.861 782.101 782.37 782.635 782.867 783.151 783.4 783.649 783.91 784.142 784.428 784.661 784.928 785.199 785.438 785.7 785.948 786.208 786.488 786.73 786.99 787.261 787.494 787.773 788.015 788.283 788.548 788.79 789.069 789.335 789.574 789.86 790.122 790.366 790.633 790.885 791.159 791.396 791.678 791.943 792.192 792.452 792.714 792.983 793.253 793.497 793.767 794.049 794.288 794.563 794.808 795.092 795.363 795.607 795.876 796.13 796.391 796.685 796.926 797.2 797.48 797.727 798.017 798.258 798.535 798.804 799.066 799.343 799.586 799.861 800.142 800.381 800.669 800.92 801.197 801.481 801.732 802.003 802.283 802.545 802.806 803.074 803.349 803.628 803.874 804.16 804.438 804.686 804.982 805.251 805.498 805.776 806.064 806.316 806.601 806.852 807.14 807.421 807.675 807.954 808.23 808.483 808.783 809.035 809.314 809.486 807.169 803.315 799.6 796.263 792.68 789.266 785.607 782.136 778.926 775.35 772.178 768.636 765.494 762.226 758.665 755.724 752.414 749.188 746.052 743.021 739.765 736.807 733.745 730.91 727.761 724.686 722.023 718.78 715.973 713.175 710.28 707.721 704.599 702.072 699.205 696.322 693.808 691.068 688.49 685.817 682.958 680.506 677.9 675.202 672.9 670.167 667.822 665.242 662.709 660.409 657.788 655.309 653.098 650.478 648.085 426.379 351.209 306.279 261.99 348.493 347.662 216.813 303.13 346.001 215.946 345.213 344.858 215.261 344.073 343.66 257.55 343.129 300.034 299.78 342.398 342.198 213.754 256.391 298.996 213.445 341.392 298.612 341.232 341.192 341.146 255.875 341.236 255.976 256.038 341.468 341.515 256.182 341.626 341.627 213.487 341.464 341.368 255.958 341.217 255.839 341.012 298.296 255.622 212.934 340.594 255.4 212.809 297.85 297.782 340.255 297.649 255.071 340.03 212.496 255.01 340.025 340.033 297.53 340.027 297.511 254.998 339.999 255 255.001 340.012 340.031 297.546 340.079 340.101 170.07 340.146 340.162 255.133 297.667 255.146 297.673 340.198 340.198 212.628 340.211 340.213 255.159 340.208 340.206 212.634 340.214 340.215 212.634 297.694 340.225 255.171 340.232 297.711 297.713 340.244 255.185 297.722 340.248 340.246 340.245
754.273 754.52 754.765 754.991 755.227 755.463 755.705 755.953 756.169 756.434 756.675 756.898 757.149 757.364 757.624 757.867 758.09 758.333 758.573 758.815 759.052 759.298 759.546 759.765 760.025 760.273 760.501 760.756 760.99 761.232 761.48 761.704 761.95 762.192 762.43 762.69 762.912 763.163 763.427 763.648 763.9 764.148 764.388 764.63 764.863 765.115 765.352 765.602 765.866 766.087 766.342 766.571 766.835 767.086 767.312 767.57 767.82 768.043 768.308 768.541 768.797 769.062 769.286 769.537 769.798 770.025 770.293 770.542 770.775 771.035 771.257 771.526 771.758 772.025 772.27 772.528 772.755 773.012 773.275 773.507 773.768 774.003 774.261 774.525 774.76 775.013 775.274 775.519 775.771 776.007 776.267 776.53 776.76 777.028 777.287 777.519 777.795 778.029 778.287 778.545 778.79 779.056 779.284 779.557 779.794 780.056 780.326 780.565 780.822 781.087 781.321 781.6 781.858 782.096 782.358 782.593 782.867 783.13 783.369 783.629 783.878 784.147 784.386 784.646 784.923 785.162 785.424 785.703 785.936 786.205 786.47 786.716 786.972 787.228 787.492 787.761 787.995 788.283 788.545 788.787 789.059 789.293 789.576 789.839 790.081 790.345 790.606 790.869 791.126 791.393 791.663 791.901 792.183 792.453 792.701 792.978 793.232 793.495 793.764 794.007 794.275 794.538 794.797 795.08 795.321 795.593 795.881 796.12 796.395 796.664 796.924 797.188 797.441 797.715 797.972 798.245 798.532 798.772 799.049 799.298 799.585 799.857 800.103 800.384 800.656 800.898 801.187 801.44 801.719 802.006 802.25 802.523 802.807 803.053 803.346 803.616 803.869 804.152 804.394 804.687 804.939 805.23 805.496 805.777 806.024 806.303 806.589 806.842 807.125 807.381 807.661 807.95 808.205 808.481 808.765 809.031 809.305 809.509 807.064 803.256 799.955 796.154 792.505 789.279 785.461 782.259 778.762 775.308 772.037 768.54 765.56 762.024 758.993 755.662 752.266 749.292 746.111 742.872 740.032 736.67 733.602 730.788 727.724 724.999 721.843 718.842 716.151 713.233 710.458 707.502 704.888 702.078 699.093 696.558 693.794 690.869 688.449 685.687 682.978 680.493 677.923 675.374 672.775 670.136 667.859 665.086 662.587 660.294 657.732 655.555 652.94 650.523 648.318 419.379 308.087 306.915 349.731 348.892 261.006 347.462 346.782 259.699 345.903 259.117 345.092 344.663 258.174 257.935 300.626 300.417 300.259 342.878 299.809 256.865 342.295 256.607 299.238 299.105 341.71 298.961 341.602 341.554 341.519 298.897 341.663 256.351 341.863 299.136 299.173 341.976 342.005 256.459 341.844 341.759 256.24 341.542 341.395 255.948 298.533 341.073 298.341 298.249 340.753 255.494 340.588 297.94 255.323 340.356 297.748 255.157 340.135 297.61 340.132 297.613 297.598 340.092 340.07 255.04 340.047 297.542 297.546 340.076 297.592 255.094 340.154 297.66 255.149 297.697 340.238 340.257 340.27 340.276 170.131 340.268 297.728 297.724 297.733 297.734 340.262 340.261 297.725 212.665 340.26 212.666 212.666 340.279 297.747 255.219 297.761 340.304 255.232 340.312 297.777 212.703 340.317 340.316 212.692 255.232
754.276 754.499 754.741 754.983 755.204 755.457 755.683 755.921 756.182 756.4 756.65 756.898 757.114 757.362 757.615 757.846 758.088 758.313 758.566 758.789 759.048 759.295 759.515 759.779 759.998 760.247 760.495 760.719 760.971 761.225 761.458 761.695 761.929 762.185 762.436 762.656 762.906 763.163 763.382 763.649 763.871 764.123 764.384 764.611 764.858 765.087 765.344 765.579 765.838 766.092 766.315 766.567 766.828 767.056 767.314 767.562 767.795 768.06 768.286 768.538 768.788 769.017 769.288 769.516 769.764 770.023 770.255 770.519 770.774 771.005 771.256 771.497 771.758 771.999 772.266 772.498 772.75 772.984 773.255 773.509 773.74 773.993 774.254 774.487 774.758 775.01 775.245 775.517 775.743 776.006 776.241 776.495 776.753 777.003 777.264 777.522 777.75 778.021 778.282 778.522 778.789 779.026 779.301 779.527 779.794 780.052 780.287 780.554 780.797 781.056 781.323 781.555 781.829 782.093 782.334 782.589 782.841 783.102 783.37 783.606 783.876 784.117 784.383 784.654 784.894 785.163 785.423 785.674 785.94 786.181 786.445 786.708 786.948 787.222 787.468 787.726 788.01 788.246 788.518 788.787 789.022 789.291 789.565 789.816 790.079 790.324 790.598 790.841 791.122 791.39 791.629 791.916 792.155 792.425 792.694 792.938 793.211 793.488 793.74 793.998 794.252 794.53 794.803 795.042 795.314 795.593 795.831 796.122 796.363 796.636 796.92 797.167 797.435 797.684 797.964 798.22 798.501 798.777 799.02 799.294 799.577 799.825 800.106 800.375 800.629 800.916 801.162 801.437 801.708 801.958 802.252 802.5 802.77 803.051 803.304 803.591 803.868 804.12 804.393 804.655 804.938 805.201 805.492 805.744 806.018 806.272 806.567 806.844 807.095 807.37 807.655 807.908 808.202 808.477 808.733 809.029 809.275 809.452 807.236 803.553 799.837 796.291 792.609 789.02 785.864 782.153 778.631 775.402 771.847 768.738 765.14 762.214 758.801 755.526 752.566 749.228 746.231 743.059 739.814 737.029 733.768 730.651 727.828 724.869 721.965 718.986 715.955 713.307 710.315 707.661 704.757 701.819 699.239 696.383 693.641 691.014 688.252 685.767 683.079 680.42 678.008 675.276 672.849 670.323 667.567 665.289 662.7 660.148 657.938 655.425 652.891 650.585 648.196 537.095 352.954 307.485 350.19 305.697 348.597 347.794 260.436 260.001 302.836 345.726 345.278 301.747 258.331 344.076 300.836 257.695 300.434 214.454 342.911 342.733 299.778 299.601 342.312 256.648 342.1 342.044 256.491 341.928 341.916 299.284 256.551 342.251 342.282 256.72 342.354 299.568 342.306 342.196 299.31 256.486 341.863 341.731 256.183 298.745 213.315 341.197 341.09 340.979 170.433 340.781 340.702 340.629 340.548 255.36 297.847 340.315 212.65 340.217 297.672 255.131 340.15 340.129 297.593 340.096 297.586 255.092 255.107 255.135 255.149 340.23 297.717 340.272 340.288 340.309 212.715 255.262 297.807 255.258 340.34 255.253 340.331 297.789 340.325 212.702 340.325 340.325 255.247 340.326 255.245 340.339 255.258 255.266 255.268 340.365 255.279 212.733 340.381 255.292 340.389 340.388 212.744 255.287 340.387 255.296
754.254 754.484 754.721 754.965 755.211 755.427 755.688 755.925 756.152 756.408 756.619 756.877 757.122 757.341 757.587 757.82 758.062 758.313 758.537 758.797 759.017 759.272 759.52 759.741 760.005 760.228 760.475 760.721 760.948 761.197 761.452 761.677 761.929 762.157 762.413 762.664 762.884 763.137 763.39 763.627 763.872 764.1 764.353 764.611 764.839 765.094 765.326 765.574 765.81 766.049 766.322 766.544 766.8 767.058 767.295 767.543 767.772 768.026 768.288 768.519 768.769 769.026 769.248 769.52 769.773 770.004 770.257 770.485 770.751 771.006 771.233 771.505 771.731 771.977 772.235 772.499 772.731 772.991 773.218 773.486 773.744 773.974 774.234 774.488 774.738 774.987 775.225 775.482 775.75 775.98 776.241 776.503 776.731 777.011 777.258 777.501 777.758 777.993 778.259 778.498 778.766 779.026 779.263 779.536 779.767 780.032 780.289 780.526 780.801 781.058 781.303 781.564 781.799 782.069 782.331 782.565 782.828 783.081 783.329 783.611 783.84 784.125 784.359 784.624 784.896 785.135 785.396 785.643 785.916 786.165 786.423 786.688 786.955 787.19 787.473 787.73 787.977 788.255 788.484 788.764 789.031 789.268 789.536 789.788 790.051 790.323 790.567 790.85 791.088 791.366 791.635 791.875 792.162 792.404 792.672 792.939 793.186 793.457 793.734 793.978 794.253 794.5 794.778 795.052 795.29 795.565 795.84 796.098 796.364 796.612 796.887 797.167 797.415 797.692 797.944 798.214 798.47 798.731 799.027 799.269 799.546 799.828 800.085 800.354 800.603 800.88 801.165 801.416 801.688 801.967 802.209 802.504 802.779 803.03 803.306 803.554 803.843 804.121 804.368 804.664 804.909 805.177 805.458 805.745 805.997 806.28 806.527 806.819 807.1 807.349 807.632 807.909 808.181 808.452 808.711 808.991 809.283 809.448 807.004 803.21 799.94 795.96 792.49 789.097 785.55 782.337 778.73 775.523 771.958 768.527 765.435 761.909 758.952 755.578 752.344 749.396 745.997 742.841 739.868 736.74 733.935 730.75 727.675 724.966 721.939 719.049 716.246 713.089 710.536 707.398 704.848 701.973 699.058 696.513 693.763 691.172 688.343 685.774 683.138 680.463 677.778 675.444 672.643 670.126 667.736 665.054 662.866 660.219 657.708 655.494 653.019 650.7 648.309 448.496 354.108 352.035 350.816 262.37 348.98 304.781 347.614 303.684 259.82 259.397 345.463 258.767 215.386 344.35 258.064 343.857 343.6 214.606 343.188 343.032 342.903 342.787 342.674 214.097 342.493 256.806 256.787 342.392 342.419 342.516 256.961 342.672 257.025 342.713 257.02 256.995 342.541 299.61 256.708 299.392 342.059 299.172 256.342 341.58 256.084 341.305 341.194 255.819 340.986 298.29 255.611 340.745 255.494 255.427 297.935 255.31 255.25 340.303 297.739 255.185 297.691 170.096 340.162 340.171 255.142 297.693 340.254 255.21 340.308 297.786 255.267 297.822 340.402 340.425 255.321 340.433 170.21 340.43 340.426 255.321 340.416 255.3 340.397 255.301 340.399 255.299 340.4 297.851 212.754 340.41 340.418 297.87 297.877 340.437 255.333 297.89 340.454 255.342 340.463 255.358 340.479 340.492 297.942 297.96
754.252 754.464 754.714 754.939 755.177 755.442 755.658 755.905 756.148 756.364 756.616 756.87 757.094 757.342 757.56 757.819 758.065 758.285 758.546 758.764 759.011 759.249 759.498 759.744 759.962 760.221 760.47 760.699 760.943 761.169 761.432 761.679 761.902 762.148 762.409 762.635 762.89 763.134 763.362 763.626 763.845 764.1 764.327 764.573 764.837 765.063 765.327 765.553 765.802 766.066 766.287 766.55 766.79 767.036 767.287 767.514 767.772 768.022 768.25 768.509 768.744 768.996 769.265 769.488 769.744 770 770.234 770.481 770.725 770.979 771.235 771.461 771.728 771.976 772.208 772.476 772.729 772.96 773.217 773.484 773.711 773.972 774.228 774.466 774.731 774.963 775.218 775.459 775.706 775.985 776.214 776.473 776.737 776.966 777.237 777.492 777.732 777.983 778.236 778.495 778.74 778.999 779.262 779.491 779.764 780.002 780.265 780.534 780.772 781.035 781.296 781.53 781.791 782.045 782.306 782.57 782.804 783.075 783.346 783.578 783.855 784.089 784.356 784.616 784.872 785.135 785.372 785.636 785.914 786.144 786.416 786.66 786.918 787.205 787.44 787.708 787.972 788.207 788.481 788.756 789 789.269 789.506 789.787 790.055 790.294 790.577 790.813 791.082 791.34 791.611 791.879 792.115 792.397 792.667 792.916 793.18 793.427 793.712 793.98 794.223 794.49 794.774 795.02 795.296 795.562 795.809 796.096 796.334 796.611 796.859 797.126 797.413 797.659 797.946 798.191 798.462 798.749 798.988 799.275 799.536 799.803 800.077 800.323 800.603 800.876 801.123 801.405 801.661 801.935 802.227 802.47 802.748 803.027 803.281 803.55 803.816 804.091 804.37 804.615 804.907 805.176 805.429 805.72 805.995 806.247 806.526 806.817 807.063 807.348 807.626 807.885 808.173 808.425 808.703 808.965 809.234 809.459 807.184 803.426 799.635 796.389 792.564 789.005 785.695 782.266 778.839 775.364 772.097 768.691 765.248 762.293 758.788 755.76 752.454 749.102 746.163 742.941 739.778 736.966 733.851 730.842 727.789 724.724 722.036 718.938 715.878 713.28 710.207 707.629 704.711 701.896 699.142 696.348 693.842 691.079 688.197 685.828 683.054 680.585 677.997 675.136 672.817 670.192 667.632 665.371 662.75 660.138 657.846 655.34 653.15 650.562 648.134 565.367 310.568 308.893 351.457 350.28 349.435 348.666 304.581 260.48 346.614 302.712 172.756 345.191 344.89 258.446 344.394 301.117 343.872 300.713 300.594 214.647 300.386 343.155 257.29 300.074 342.889 342.877 342.908 300.076 257.221 257.265 300.192 171.529 343.03 343.007 300.092 342.9 257.084 256.986 342.52 299.595 256.708 299.354 341.964 341.805 341.637 298.805 256.005 341.204 255.823 255.762 340.936 340.842 298.156 340.665 297.998 340.476 255.32 212.757 340.37 340.342 255.232 340.298 297.746 340.3 340.328 340.354 212.738 297.858 255.324 255.351 340.486 340.513 297.959 340.543 297.968 255.393 340.523 212.83 255.387 297.946 255.37 340.48 297.915 297.913 212.792 340.474 255.356 297.916 255.36 340.484 297.927 297.931 340.504 255.384 340.52 297.968 255.41 212.861 340.583 340.599 340.613 212.89 255.478 340.647
754.215 754.46 754.703 754.924 755.177 755.422 755.645 755.901 756.118 756.368 756.615 756.832 757.078 757.333 757.563 757.808 758.029 758.283 758.529 758.765 759.012 759.236 759.479 759.713 759.966 760.208 760.434 760.688 760.94 761.164 761.419 761.642 761.898 762.149 762.37 762.62 762.86 763.096 763.362 763.587 763.835 764.097 764.317 764.571 764.818 765.062 765.311 765.549 765.802 766.025 766.279 766.539 766.767 767.023 767.247 767.498 767.767 767.992 768.247 768.498 768.744 768.989 769.223 769.476 769.731 769.964 770.224 770.481 770.706 770.982 771.224 771.464 771.717 771.974 772.198 772.465 772.709 772.959 773.214 773.444 773.699 773.948 774.191 774.455 774.694 774.949 775.222 775.449 775.71 775.965 776.212 776.457 776.706 776.963 777.223 777.452 777.724 777.984 778.223 778.49 778.72 779.001 779.231 779.494 779.752 779.982 780.255 780.496 780.76 781.022 781.254 781.53 781.792 782.025 782.303 782.559 782.799 783.067 783.303 783.566 783.813 784.078 784.353 784.592 784.852 785.093 785.352 785.635 785.873 786.139 786.404 786.644 786.918 787.184 787.426 787.704 787.94 788.211 788.48 788.715 788.982 789.259 789.509 789.775 790.015 790.291 790.559 790.815 791.083 791.326 791.591 791.845 792.119 792.382 792.628 792.904 793.177 793.421 793.698 793.941 794.219 794.491 794.732 795.003 795.264 795.52 795.81 796.054 796.324 796.608 796.847 797.123 797.392 797.657 797.928 798.187 798.462 798.704 798.98 799.263 799.511 799.79 800.033 800.306 800.599 800.843 801.12 801.393 801.66 801.927 802.182 802.457 802.734 802.987 803.271 803.55 803.794 804.094 804.358 804.619 804.894 805.173 805.417 805.708 805.973 806.245 806.523 806.773 807.05 807.322 807.586 807.873 808.133 808.411 808.708 808.955 809.238 809.414 806.99 803.434 799.868 796.213 792.546 789.351 785.593 782.04 778.806 775.215 772.164 768.455 765.452 762.056 758.748 755.829 752.383 749.389 746.124 742.911 740.099 736.778 733.664 730.898 727.651 724.674 721.913 718.854 716.188 713.244 710.495 707.575 704.572 701.987 699.194 696.626 693.897 690.933 688.46 685.72 683.021 680.591 677.838 675.191 672.804 670.078 667.79 665.177 662.611 660.381 657.868 655.285 652.971 650.533 648.345 645.858 266.852 353.734 352.116 350.869 349.86 349.135 261.275 347.714 260.241 259.543 345.73 259.086 302.052 344.947 344.681 215.26 344.235 344.049 257.943 343.799 343.657 257.659 343.419 257.521 214.591 343.397 300.505 257.604 343.457 300.512 257.494 343.335 257.507 214.572 343.255 343.135 214.409 300.025 299.888 256.933 342.43 299.483 256.58 256.469 299.077 256.246 298.814 341.366 255.923 341.11 341.016 213.069 340.822 298.14 298.063 340.558 255.397 255.374 340.471 255.34 340.436 340.425 255.304 297.879 340.454 340.484 340.51 297.966 255.435 340.598 255.476 255.48 340.643 255.477 212.889 340.618 298.037 255.461 298.031 340.586 255.433 340.559 297.98 255.409 340.547 340.55 212.844 297.983 340.561 255.424 340.577 298.009 255.459 340.618 298.053 212.896 340.663 298.096 298.11 340.724 340.742 212.965 298.17 340.786
754.213 754.456 754.681 754.932 755.153 755.396 755.644 755.859 756.116 756.34 756.58 756.837 757.055 757.311 757.556 757.776 758.021 758.26 758.506 758.758 758.984 759.236 759.452 759.712 759.937 760.18 760.443 760.669 760.918 761.165 761.387 761.636 761.897 762.123 762.368 762.595 762.855 763.11 763.331 763.578 763.831 764.051 764.323 764.544 764.798 765.055 765.282 765.548 765.769 766.024 766.253 766.516 766.765 766.993 767.245 767.501 767.724 767.997 768.241 768.476 768.736 768.965 769.216 769.453 769.704 769.954 770.202 770.451 770.712 770.937 771.204 771.455 771.692 771.927 772.204 772.43 772.689 772.951 773.191 773.436 773.677 773.941 774.2 774.435 774.688 774.949 775.175 775.451 775.679 775.939 776.208 776.431 776.701 776.96 777.19 777.467 777.697 777.957 778.216 778.451 778.726 778.955 779.233 779.485 779.726 779.999 780.232 780.493 780.75 780.99 781.253 781.5 781.757 782.024 782.263 782.536 782.798 783.037 783.295 783.542 783.813 784.074 784.326 784.582 784.827 785.091 785.369 785.602 785.871 786.136 786.379 786.652 786.892 787.156 787.425 787.658 787.937 788.181 788.442 788.721 788.958 789.235 789.501 789.74 790.007 790.267 790.533 790.807 791.052 791.326 791.561 791.844 792.088 792.352 792.637 792.883 793.154 793.422 793.664 793.934 794.217 794.463 794.729 794.976 795.259 795.536 795.776 796.045 796.319 796.559 796.854 797.094 797.37 797.65 797.897 798.185 798.426 798.703 798.952 799.238 799.509 799.756 800.031 800.309 800.551 800.848 801.114 801.369 801.652 801.901 802.174 802.432 802.704 802.977 803.246 803.518 803.8 804.045 804.336 804.609 804.867 805.123 805.424 805.669 805.951 806.237 806.498 806.764 807.026 807.313 807.596 807.851 808.127 808.411 808.656 808.957 809.205 809.406 806.822 803.595 799.719 796.037 792.796 788.939 785.769 782.197 778.687 775.53 771.88 768.855 765.227 761.971 758.883 755.42 752.485 749.24 746.06 743.11 739.93 736.955 733.889 730.735 727.932 724.772 721.746 719.027 716.104 713.343 710.326 707.455 704.7 701.93 699.3 696.479 693.552 691.113 688.322 685.599 683.113 680.348 677.946 675.318 672.66 670.375 667.663 665.318 662.821 660.18 657.948 655.363 652.9 650.709 648.279 645.93 258.816 354.602 352.96 351.495 350.402 262.13 348.845 217.505 347.127 346.45 259.541 259.29 345.493 345.25 301.898 301.737 215.398 344.465 344.324 301.169 301.059 343.94 300.858 343.85 300.874 257.907 300.923 343.905 257.9 214.864 343.71 300.671 300.659 257.687 214.685 257.545 300.317 343.066 257.192 342.732 256.941 342.411 342.239 213.824 341.94 341.795 298.933 256.141 298.721 298.616 298.488 341.025 255.686 340.807 255.543 255.494 340.627 298.038 255.447 340.58 298 340.552 297.968 255.417 255.438 298.033 340.642 255.516 340.702 340.731 340.748 298.156 255.553 255.545 340.719 298.12 298.112 340.693 340.68 340.667 298.076 212.897 212.891 340.628 340.634 255.476 340.647 340.654 340.66 340.67 212.932 255.527 340.716 255.55 298.147 340.764 298.187 255.602 340.823 255.632 170.425 340.881 340.905 213.086
